# .PCD v0.7 - Point Cloud Data file format
VERSION 0.7
FIELDS x y z
SIZE 4 4 4
TYPE F F F
COUNT 1 1 1
WIDTH 1518
HEIGHT 1
VIEWPOINT 0 0 0 1 0 0 0
POINTS 1518
DATA ascii
-11.864452 -17.640272 10.998206
-11.714454 -17.54027 10.998206
-11.526954 -17.440269 10.998206
-11.399452 -17.340271 10.998206
-11.236953 -17.240273 10.998206
-11.096953 -17.140272 10.998206
-10.969452 -17.04027 10.998206
-10.846953 -16.940269 10.998206
-10.691952 -16.840271 10.998206
-10.546953 -16.740273 10.998206
-10.386954 -16.640272 10.998206
-10.244453 -16.54027 10.998206
-10.081954 -16.440269 10.998206
-9.8869543 -16.340271 10.998206
-9.724453 -16.240273 10.998206
-9.514452 -16.140272 10.998206
-9.3469534 -16.04027 10.998206
-9.1119528 -15.940269 10.998206
-8.9444523 -15.84027 10.998206
-8.7444534 -15.740272 10.998206
-8.5869522 -15.640272 10.998206
-8.326952 -15.54027 10.998206
-8.1294518 -15.440269 10.998206
-7.9319534 -15.34027 10.998206
-7.6969528 -15.240272 10.998206
-7.474453 -15.140272 10.998206
-7.2519531 -15.04027 10.998206
-6.9419518 -14.940269 10.998206
-6.8019524 -14.84027 10.998206
-6.599453 -14.740272 10.998206
-6.394453 -14.640272 10.998206
-6.2119522 -14.54027 10.998206
-6.0494518 -14.440269 10.998206
-5.8594532 -14.34027 10.998206
-5.6769524 -14.240272 10.998206
-5.5044518 -14.140272 10.998206
-5.3044529 -14.04027 10.998206
-5.1644535 -13.940269 10.998206
-5.0019531 -13.84027 10.998206
-4.8444519 -13.740272 10.998206
-4.6844521 -13.640272 10.998206
-4.536953 -13.54027 10.998206
-4.389452 -13.440269 10.998206
-4.264452 -13.34027 10.998206
-4.1219521 -13.240272 10.998206
-3.9494534 -13.140272 10.998206
-3.8194523 -13.04027 10.998206
-3.7144527 -12.940269 10.998206
-3.5944519 -12.84027 10.998206
-3.451952 -12.740272 10.998206
-3.2669525 -12.64027 10.998206
-3.1694527 -12.54027 10.998206
-2.9044533 -12.440269 10.998206
-2.7194519 -12.34027 10.998206
-2.4244518 -12.240271 10.998205
-13.919453 25.45973 10.998205
-13.924453 25.559729 10.998206
-14.036955 25.659729 10.998206
-14.039452 25.759731 10.998206
-14.096953 25.85973 10.998206
-14.096953 25.95973 10.998206
-14.036955 26.059729 10.998206
-14.006952 26.159729 10.998206
-13.819453 26.259731 10.998205
-13.279453 -18.940269 11.098206
-13.341952 -18.840271 11.098206
-13.371951 -18.740273 11.098206
-13.389452 -18.640272 11.098206
-13.389452 -18.54027 11.098206
-13.371951 -18.440269 11.098206
-13.291953 -18.340271 11.098206
-13.171953 -18.240273 11.098206
-12.944452 -18.140272 11.098206
-12.759453 -18.04027 11.098206
-12.534453 -17.940269 11.098206
-12.289452 -17.840271 11.098206
-12.099453 -17.740273 11.098206
-11.901954 -17.640272 11.098206
-11.716953 -17.54027 11.098206
-11.526954 -17.440269 11.098206
-11.421953 -17.340271 11.098206
-11.266953 -17.240273 11.098206
-11.096953 -17.140272 11.098206
-10.979453 -17.04027 11.098206
-10.846953 -16.940269 11.098206
-10.694452 -16.840271 11.098206
-10.546953 -16.740273 11.098206
-10.381952 -16.640272 11.098206
-10.226954 -16.54027 11.098206
-10.066952 -16.440269 11.098206
-9.8669529 -16.340271 11.098206
-9.6694527 -16.240273 11.098206
-9.4969521 -16.140272 11.098206
-9.3094521 -16.04027 11.098206
-9.0944519 -15.940269 11.098206
-8.9144535 -15.84027 11.098206
-8.6869526 -15.740272 11.098206
-8.4844532 -15.640272 11.098206
-8.2469521 -15.54027 11.098206
-8.0694523 -15.440269 11.098206
-7.8594527 -15.34027 11.098206
-7.6419525 -15.240272 11.098206
-7.4269524 -15.140272 11.098206
-7.1844521 -15.04027 11.098206
-6.9419518 -14.940269 11.098206
-6.7319527 -14.84027 11.098206
-6.5569534 -14.740272 11.098206
-6.3569527 -14.640272 11.098206
-6.2119522 -14.54027 11.098206
-6.0244522 -14.440269 11.098206
-5.8194523 -14.34027 11.098206
-5.639452 -14.240272 11.098206
-5.4469528 -14.140272 11.098206
-5.2744522 -14.04027 11.098206
-5.1144524 -13.940269 11.098206
-4.9619522 -13.84027 11.098206
-4.831953 -13.740272 11.098206
-4.6544533 -13.640272 11.098206
-4.4844532 -13.54027 11.098206
-4.3244534 -13.440269 11.098206
-4.2169533 -13.34027 11.098206
-4.0644531 -13.240272 11.098206
-3.9269524 -13.140272 11.098206
-3.7794533 -13.04027 11.098206
-3.6569519 -12.940269 11.098206
-3.5244522 -12.84027 11.098206
-3.349453 -12.740272 11.098206
-3.1894531 -12.64027 11.098206
-3.0219536 -12.54027 11.098206
-2.7194519 -12.440269 11.098206
-2.4244518 -12.340269 11.098206
-13.924452 25.45973 11.098206
-13.939453 25.559729 11.098206
-14.039452 25.659729 11.098206
-14.096953 25.759731 11.098206
-14.116953 25.85973 11.098206
-14.116953 25.95973 11.098206
-14.096953 26.059729 11.098206
-14.031952 26.159729 11.098206
-13.819452 26.259729 11.098206
-13.819452 26.35973 11.098206
-13.279453 -18.940269 11.198207
-13.351952 -18.840271 11.198206
-13.389452 -18.740273 11.198206
-13.421953 -18.640272 11.198206
-13.421953 -18.54027 11.198206
-13.389452 -18.440269 11.198206
-13.371951 -18.340271 11.198206
-13.194452 -18.240273 11.198206
-12.954453 -18.140272 11.198206
-12.799453 -18.04027 11.198206
-12.534453 -17.940269 11.198206
-12.351952 -17.840271 11.198206
-12.129452 -17.740273 11.198206
-11.934452 -17.640272 11.198206
-11.739452 -17.54027 11.198206
-11.571953 -17.440269 11.198206
-11.426952 -17.340271 11.198206
-11.266953 -17.240273 11.198206
-11.146952 -17.140272 11.198206
-10.979453 -17.04027 11.198206
-10.846953 -16.940269 11.198206
-10.701952 -16.840271 11.198206
-10.546953 -16.740273 11.198206
-10.379452 -16.640272 11.198206
-10.226954 -16.54027 11.198206
-10.029453 -16.440269 11.198206
-9.8544531 -16.340271 11.198206
-9.6419525 -16.240273 11.198206
-9.4694519 -16.140272 11.198206
-9.2419529 -16.04027 11.198206
-9.0619526 -15.940269 11.198206
-8.8794518 -15.84027 11.198206
-8.661953 -15.740272 11.198206
-8.4344521 -15.640272 11.198206
-8.2419529 -15.54027 11.198206
-8.0069523 -15.440269 11.198206
-7.7744522 -15.34027 11.198206
-7.5644531 -15.240272 11.198206
-7.3569527 -15.140272 11.198206
-7.0694518 -15.04027 11.198206
-6.9219527 -14.940269 11.198206
-6.7044525 -14.84027 11.198206
-6.4969521 -14.740272 11.198206
-6.3169518 -14.640272 11.198206
-6.1469536 -14.54027 11.198206
-5.9444523 -14.440269 11.198206
-5.769453 -14.34027 11.198206
-5.6044521 -14.240272 11.198206
-5.3994522 -14.140272 11.198206
-5.1869526 -14.04027 11.198206
-5.0494518 -13.940269 11.198206
-4.9019527 -13.84027 11.198206
-4.7619534 -13.740272 11.198206
-4.6094532 -13.640272 11.198206
-4.4144535 -13.54027 11.198206
-4.2594528 -13.440269 11.198206
-4.0894527 -13.34027 11.198206
-3.9619522 -13.240272 11.198206
-3.8444519 -13.140272 11.198206
-3.7344532 -13.04027 11.198206
-3.6019535 -12.940269 11.198206
-3.3994522 -12.84027 11.198206
-3.2519531 -12.740272 11.198206
-3.0719528 -12.64027 11.198206
-2.8394527 -12.54027 11.198206
-2.4244518 -12.440269 11.198206
-2.4244518 -12.340269 11.198207
-13.939453 25.45973 11.198207
-13.939453 25.559729 11.198206
-14.039452 25.659729 11.198206
-14.116953 25.759731 11.198206
-14.159453 25.85973 11.198206
-14.159453 25.95973 11.198206
-14.116953 26.059729 11.198206
-14.089454 26.159729 11.198206
-13.924453 26.259731 11.198206
-13.819453 26.359732 11.198207
-13.279453 -18.940269 11.298206
-13.351952 -18.840271 11.298206
-13.421953 -18.740273 11.298206
-13.424453 -18.640272 11.298206
-13.424453 -18.54027 11.298206
-13.421953 -18.440269 11.298206
-13.389452 -18.340271 11.298206
-13.266953 -18.240273 11.298206
-13.029452 -18.140272 11.298206
-12.816954 -18.04027 11.298206
-12.581954 -17.940269 11.298206
-12.376953 -17.840271 11.298206
-12.131952 -17.740273 11.298206
-11.956954 -17.640272 11.298206
-11.766953 -17.54027 11.298206
-11.601954 -17.440269 11.298206
-11.431953 -17.340271 11.298206
-11.269454 -17.240273 11.298206
-11.146952 -17.140272 11.298206
-10.984453 -17.04027 11.298206
-10.841953 -16.940269 11.298206
-10.701952 -16.840271 11.298206
-10.546953 -16.740273 11.298206
-10.379452 -16.640272 11.298206
-10.216953 -16.54027 11.298206
-10.024452 -16.440269 11.298206
-9.8544531 -16.340271 11.298206
-9.6194534 -16.240273 11.298206
-9.4019537 -16.140272 11.298206
-9.2194519 -16.04027 11.298206
-9.0544529 -15.940269 11.298206
-8.7844534 -15.84027 11.298206
-8.6119528 -15.740272 11.298206
-8.4219532 -15.640272 11.298206
-8.1994543 -15.54027 11.298206
-7.9644537 -15.440269 11.298206
-7.7319527 -15.34027 11.298206
-7.5219512 -15.240272 11.298206
-7.2719512 -15.140272 11.298206
-7.0694518 -15.04027 11.298206
-6.8894515 -14.940269 11.298206
-6.6569519 -14.84027 11.298206
-6.4494543 -14.740272 11.298206
-6.2419529 -14.640272 11.298206
-6.076952 -14.54027 11.298206
-5.8969536 -14.440269 11.298206
-5.6819534 -14.34027 11.298206
-5.4844532 -14.240272 11.298206
-5.3294525 -14.140272 11.298206
-5.1294518 -14.04027 11.298206
-4.9794521 -13.940269 11.298206
-4.8369522 -13.84027 11.298206
-4.6844521 -13.740272 11.298206
-4.5069523 -13.640272 11.298206
-4.3594532 -13.54027 11.298206
-4.1794529 -13.440269 11.298206
-4.0119534 -13.34027 11.298206
-3.8444519 -13.240272 11.298206
-3.7519531 -13.140272 11.298206
-3.6244526 -13.04027 11.298206
-3.4294529 -12.940269 11.298206
-3.349453 -12.84027 11.298206
-3.1044521 -12.740272 11.298206
-2.9044533 -12.64027 11.298206
-2.706953 -12.54027 11.298206
-2.4244518 -12.440269 11.298206
-13.939453 25.45973 11.298206
-13.939453 25.559729 11.298206
-14.039452 25.659729 11.298206
-14.159453 25.759731 11.298206
-14.164452 25.85973 11.298206
-14.164452 25.95973 11.298206
-14.159453 26.059729 11.298206
-14.116953 26.159729 11.298206
-14.089454 26.259731 11.298206
-13.924452 26.359732 11.298206
-13.279453 -18.940269 11.398207
-13.369453 -18.840271 11.398208
-13.424453 -18.740273 11.398208
-13.424453 -18.640272 11.398208
-13.424453 -18.54027 11.398208
-13.424453 -18.440269 11.398208
-13.411955 -18.340271 11.398208
-13.286955 -18.240273 11.398208
-13.059451 -18.140272 11.398208
-12.841952 -18.04027 11.398208
-12.581954 -17.940269 11.398208
-12.376953 -17.840271 11.398208
-12.149452 -17.740273 11.398208
-11.979453 -17.640272 11.398208
-11.794453 -17.54027 11.398208
-11.601954 -17.440269 11.398208
-11.436953 -17.340271 11.398208
-11.269454 -17.240273 11.398208
-11.121952 -17.140272 11.398208
-10.984453 -17.04027 11.398208
-10.841953 -16.940269 11.398208
-10.694452 -16.840271 11.398208
-10.511954 -16.740273 11.398208
-10.354453 -16.640272 11.398208
-10.176952 -16.54027 11.398208
-9.9894524 -16.440269 11.398208
-9.8294525 -16.340271 11.398208
-9.6169529 -16.240273 11.398208
-9.3969517 -16.140272 11.398208
-9.1794529 -16.04027 11.398208
-8.9944534 -15.940269 11.398208
-8.769454 -15.84027 11.398208
-8.5669518 -15.740272 11.398208
-8.3719521 -15.640272 11.398208
-8.1819534 -15.54027 11.398208
-7.9244528 -15.440269 11.398208
-7.6919518 -15.34027 11.398208
-7.4469528 -15.240272 11.398208
-7.2094512 -15.140272 11.398208
-7.0169525 -15.04027 11.398208
-6.8094521 -14.940269 11.398208
-6.5594521 -14.84027 11.398208
-6.3719521 -14.740272 11.398208
-6.2044525 -14.640272 11.398208
-5.9894524 -14.54027 11.398208
-5.7819519 -14.440269 11.398208
-5.6144524 -14.34027 11.398208
-5.4319534 -14.240272 11.398208
-5.2494526 -14.140272 11.398208
-5.0894527 -14.04027 11.398208
-4.951952 -13.940269 11.398208
-4.7994518 -13.84027 11.398208
-4.6219521 -13.740272 11.398208
-4.4494534 -13.640272 11.398208
-4.269453 -13.54027 11.398208
-4.0944519 -13.440269 11.398208
-3.9144535 -13.34027 11.398208
-3.7519531 -13.240272 11.398208
-3.6244526 -13.140272 11.398208
-3.4694519 -13.04027 11.398208
-3.3569527 -12.940269 11.398208
-3.1044521 -12.84027 11.398208
-2.951952 -12.740272 11.398208
-2.7419529 -12.64027 11.398208
-2.706953 -12.54027 11.398207
-14.039452 25.559729 11.398207
-14.081954 25.659729 11.398208
-14.164452 25.759731 11.398208
-14.164452 25.85973 11.398208
-14.164452 25.95973 11.398208
-14.164452 26.059729 11.398208
-14.159453 26.159729 11.398208
-14.116953 26.259731 11.398208
-14.089453 26.359732 11.398207
-13.279453 -18.940269 11.498205
-13.369453 -18.840271 11.498206
-13.424453 -18.740273 11.498206
-13.424453 -18.640272 11.498206
-13.436953 -18.54027 11.498206
-13.436953 -18.440269 11.498206
-13.411955 -18.340271 11.498206
-13.286955 -18.240273 11.498206
-13.069452 -18.140272 11.498206
-12.866953 -18.04027 11.498206
-12.639452 -17.940269 11.498206
-12.371952 -17.840271 11.498206
-12.149452 -17.740273 11.498206
-11.981953 -17.640272 11.498206
-11.794453 -17.54027 11.498206
-11.611953 -17.440269 11.498206
-11.436953 -17.340271 11.498206
-11.279453 -17.240273 11.498206
-11.121952 -17.140272 11.498206
-10.981953 -17.04027 11.498206
-10.836952 -16.940269 11.498206
-10.659453 -16.840271 11.498206
-10.504452 -16.740273 11.498206
-10.351954 -16.640272 11.498206
-10.126953 -16.54027 11.498206
-9.9644537 -16.440269 11.498206
-9.7719517 -16.340271 11.498206
-9.5794525 -16.240273 11.498206
-9.349453 -16.140272 11.498206
-9.1669531 -16.04027 11.498206
-8.9369526 -15.940269 11.498206
-8.7144537 -15.84027 11.498206
-8.5244522 -15.740272 11.498206
-8.3019524 -15.640272 11.498206
-8.1044531 -15.54027 11.498206
-7.8844528 -15.440269 11.498206
-7.664453 -15.34027 11.498206
-7.3969512 -15.240272 11.498206
-7.1344528 -15.140272 11.498206
-6.9069519 -15.04027 11.498206
-6.7419524 -14.940269 11.498206
-6.5294533 -14.84027 11.498206
-6.3369522 -14.740272 11.498206
-6.1344528 -14.640272 11.498206
-5.9244518 -14.54027 11.498206
-5.7294521 -14.440269 11.498206
-5.5394535 -14.34027 11.498206
-5.3719521 -14.240272 11.498206
-5.2044525 -14.140272 11.498206
-5.0544529 -14.04027 11.498206
-4.8919525 -13.940269 11.498206
-4.7344532 -13.84027 11.498206
-4.5494518 -13.740272 11.498206
-4.3519535 -13.640272 11.498206
-4.1719532 -13.54027 11.498206
-3.9819527 -13.440269 11.498206
-3.8394527 -13.34027 11.498206
-3.6769524 -13.240272 11.498206
-3.4969521 -13.140272 11.498206
-3.3569527 -13.04027 11.498206
-3.1569519 -12.940269 11.498206
-2.9969521 -12.84027 11.498206
-2.7419529 -12.740272 11.498206
-2.7419529 -12.64027 11.498205
-14.081953 25.559729 11.498205
-14.081954 25.659729 11.498206
-14.164452 25.759731 11.498206
-14.419452 25.85973 11.498206
-14.419452 25.95973 11.498206
-14.419452 26.059729 11.498206
-14.254454 26.159729 11.498206
-14.206954 26.259731 11.498206
-14.116954 26.359732 11.498205
-13.279453 -18.940269 11.598206
-13.326952 -18.840271 11.598206
-13.419452 -18.740273 11.598206
-13.436953 -18.640272 11.598206
-13.436953 -18.54027 11.598206
-13.436953 -18.440269 11.598206
-13.436953 -18.340271 11.598206
-13.286955 -18.240273 11.598206
-13.104453 -18.140272 11.598206
-12.866953 -18.04027 11.598206
-12.639452 -17.940269 11.598206
-12.371952 -17.840271 11.598206
-12.149452 -17.740273 11.598206
-11.981953 -17.640272 11.598206
-11.794453 -17.54027 11.598206
-11.611953 -17.440269 11.598206
-11.441952 -17.340271 11.598206
-11.279453 -17.240273 11.598206
-11.144454 -17.140272 11.598206
-10.981953 -17.04027 11.598206
-10.836952 -16.940269 11.598206
-10.631952 -16.840271 11.598206
-10.479453 -16.740273 11.598206
-10.299453 -16.640272 11.598206
-10.104453 -16.54027 11.598206
-9.9219532 -16.440269 11.598206
-9.7419529 -16.340271 11.598206
-9.5219517 -16.240273 11.598206
-9.3119526 -16.140272 11.598206
-9.1244526 -16.04027 11.598206
-8.9019537 -15.940269 11.598206
-8.6919518 -15.84027 11.598206
-8.4544525 -15.740272 11.598206
-8.2294531 -15.640272 11.598206
-8.014452 -15.54027 11.598206
-7.8144531 -15.440269 11.598206
-7.5969534 -15.34027 11.598206
-7.3069534 -15.240272 11.598206
-7.0794525 -15.140272 11.598206
-6.8919525 -15.04027 11.598206
-6.6669531 -14.940269 11.598206
-6.474453 -14.84027 11.598206
-6.2719536 -14.740272 11.598206
-6.0719528 -14.640272 11.598206
-5.8819523 -14.54027 11.598206
-5.6869526 -14.440269 11.598206
-5.5044518 -14.34027 11.598206
-5.3394527 -14.240272 11.598206
-5.1219521 -14.140272 11.598206
-5.0019531 -14.04027 11.598206
-4.8294525 -13.940269 11.598206
-4.6594524 -13.84027 11.598206
-4.4369526 -13.740272 11.598206
-4.2269535 -13.640272 11.598206
-4.0119534 -13.54027 11.598206
-3.849453 -13.440269 11.598206
-3.6969528 -13.34027 11.598206
-3.5244522 -13.240272 11.598206
-3.3569527 -13.140272 11.598206
-3.2169533 -13.04027 11.598206
-3.0419521 -12.940269 11.598206
-2.7944527 -12.840269 11.598206
-2.7419529 -12.740271 11.598206
-14.081953 25.559729 11.598206
-14.139452 25.659729 11.598206
-14.419452 25.759731 11.598206
-14.489454 25.85973 11.598206
-14.506952 25.95973 11.598206
-14.506952 26.059729 11.598206
-14.506952 26.159729 11.598206
-14.306953 26.259731 11.598206
-14.206954 26.35973 11.598206
-14.206953 26.45973 11.598206
-13.279453 -18.940269 11.698207
-13.326952 -18.840271 11.698206
-13.401954 -18.740273 11.698206
-13.436953 -18.640272 11.698206
-13.436953 -18.54027 11.698206
-13.436953 -18.440269 11.698206
-13.436953 -18.340271 11.698206
-13.286955 -18.240273 11.698206
-13.104453 -18.140272 11.698206
-12.851952 -18.04027 11.698206
-12.636954 -17.940269 11.698206
-12.371952 -17.840271 11.698206
-12.156952 -17.740273 11.698206
-11.981953 -17.640272 11.698206
-11.799453 -17.54027 11.698206
-11.611953 -17.440269 11.698206
-11.441952 -17.340271 11.698206
-11.281952 -17.240273 11.698206
-11.144454 -17.140272 11.698206
-10.976954 -17.04027 11.698206
-10.806953 -16.940269 11.698206
-10.616953 -16.840271 11.698206
-10.479453 -16.740273 11.698206
-10.259453 -16.640272 11.698206
-10.091953 -16.54027 11.698206
-9.9219532 -16.440269 11.698206
-9.706954 -16.340271 11.698206
-9.4694519 -16.240273 11.698206
-9.2719517 -16.140272 11.698206
-9.0744543 -16.04027 11.698206
-8.8519535 -15.940269 11.698206
-8.6294518 -15.84027 11.698206
-8.4394531 -15.740272 11.698206
-8.1969528 -15.640272 11.698206
-7.9619522 -15.54027 11.698206
-7.7444534 -15.440269 11.698206
-7.5144515 -15.34027 11.698206
-7.2644515 -15.240272 11.698206
-7.039453 -15.140272 11.698206
-6.8069534 -15.04027 11.698206
-6.6219521 -14.940269 11.698206
-6.4244528 -14.84027 11.698206
-6.1969528 -14.740272 11.698206
-5.9794521 -14.640272 11.698206
-5.8044529 -14.54027 11.698206
-5.6094532 -14.440269 11.698206
-5.456953 -14.34027 11.698206
-5.2769527 -14.240272 11.698206
-5.1069527 -14.140272 11.698206
-4.9219532 -14.04027 11.698206
-4.7369518 -13.940269 11.698206
-4.5694523 -13.84027 11.698206
-4.3519535 -13.740272 11.698206
-4.1319523 -13.640272 11.698206
-3.8794518 -13.54027 11.698206
-3.7119522 -13.440269 11.698206
-3.5244522 -13.34027 11.698206
-3.3369522 -13.240272 11.698206
-3.1994534 -13.140272 11.698206
-2.9844532 -13.040271 11.698207
-14.419453 25.659729 11.698206
-14.489454 25.759731 11.698206
-14.506952 25.85973 11.698206
-14.574454 25.95973 11.698206
-14.574454 26.059729 11.698206
-14.561953 26.159729 11.698206
-14.506952 26.259731 11.698206
-14.339454 26.35973 11.698206
-14.206953 26.45973 11.698207
-13.279453 -18.940269 11.798206
-13.326952 -18.840271 11.798206
-13.396952 -18.740273 11.798206
-13.434451 -18.640272 11.798206
-13.436953 -18.54027 11.798206
-13.436953 -18.440269 11.798206
-13.434451 -18.340271 11.798206
-13.276954 -18.240273 11.798206
-13.089454 -18.140272 11.798206
-12.851952 -18.04027 11.798206
-12.636954 -17.940269 11.798206
-12.414452 -17.840271 11.798206
-12.194452 -17.740273 11.798206
-11.996952 -17.640272 11.798206
-11.799453 -17.54027 11.798206
-11.584452 -17.440269 11.798206
-11.441952 -17.340271 11.798206
-11.281952 -17.240273 11.798206
-11.134453 -17.140272 11.798206
-10.976954 -17.04027 11.798206
-10.806953 -16.940269 11.798206
-10.616953 -16.840271 11.798206
-10.459452 -16.740273 11.798206
-10.226954 -16.640272 11.798206
-10.079453 -16.54027 11.798206
-9.8769531 -16.440269 11.798206
-9.6569519 -16.340271 11.798206
-9.4419518 -16.240273 11.798206
-9.2519531 -16.140272 11.798206
-9.0169525 -16.04027 11.798206
-8.8044529 -15.940269 11.798206
-8.6019535 -15.84027 11.798206
-8.3844528 -15.740272 11.798206
-8.1269531 -15.640272 11.798206
-7.8844528 -15.54027 11.798206
-7.6494522 -15.440269 11.798206
-7.4494543 -15.34027 11.798206
-7.2319527 -15.240272 11.798206
-6.9944534 -15.140272 11.798206
-6.7644515 -15.04027 11.798206
-6.5469527 -14.940269 11.798206
-6.3344536 -14.84027 11.798206
-6.0869522 -14.740272 11.798206
-5.889452 -14.640272 11.798206
-5.6919518 -14.54027 11.798206
-5.5469532 -14.440269 11.798206
-5.3394527 -14.34027 11.798206
-5.1669521 -14.240272 11.798206
-5.014452 -14.140272 11.798206
-4.8369522 -14.04027 11.798206
-4.6719532 -13.940269 11.798206
-4.474453 -13.84027 11.798206
-4.206953 -13.740272 11.798206
-3.974453 -13.640272 11.798206
-3.7344532 -13.54027 11.798206
-3.5469532 -13.440269 11.798206
-3.3369522 -13.34027 11.798206
-3.1994534 -13.240272 11.798206
-2.9469528 -13.140271 11.798206
-2.9469528 -13.040271 11.798206
-14.484454 25.659729 11.798206
-14.489454 25.759731 11.798206
-14.574454 25.85973 11.798206
-14.574454 25.95973 11.798206
-14.606952 26.059729 11.798206
-14.606952 26.159729 11.798206
-14.561953 26.259731 11.798206
-14.496951 26.35973 11.798206
-13.279453 -18.940269 11.898207
-13.306953 -18.840271 11.898208
-13.381952 -18.740273 11.898208
-13.396952 -18.640272 11.898208
-13.434451 -18.54027 11.898208
-13.434451 -18.440269 11.898208
-13.394454 -18.340271 11.898208
-13.246951 -18.240273 11.898208
-13.089454 -18.140272 11.898208
-12.874453 -18.04027 11.898208
-12.636954 -17.940269 11.898208
-12.414452 -17.840271 11.898208
-12.194452 -17.740273 11.898208
-11.999453 -17.640272 11.898208
-11.799453 -17.54027 11.898208
-11.584452 -17.440269 11.898208
-11.441952 -17.340271 11.898208
-11.281952 -17.240273 11.898208
-11.114452 -17.140272 11.898208
-10.976954 -17.04027 11.898208
-10.794453 -16.940269 11.898208
-10.606953 -16.840271 11.898208
-10.441952 -16.740273 11.898208
-10.226954 -16.640272 11.898208
-10.046953 -16.54027 11.898208
-9.8294525 -16.440269 11.898208
-9.581954 -16.340271 11.898208
-9.4019537 -16.240273 11.898208
-9.1969528 -16.140272 11.898208
-8.9769535 -16.04027 11.898208
-8.7594528 -15.940269 11.898208
-8.5594521 -15.84027 11.898208
-8.3194523 -15.740272 11.898208
-8.0719528 -15.640272 11.898208
-7.8619528 -15.54027 11.898208
-7.6094527 -15.440269 11.898208
-7.3794518 -15.34027 11.898208
-7.161953 -15.240272 11.898208
-6.9269524 -15.140272 11.898208
-6.6969528 -15.04027 11.898208
-6.4419518 -14.940269 11.898208
-6.2344532 -14.84027 11.898208
-6.0419521 -14.740272 11.898208
-5.8294525 -14.640272 11.898208
-5.6494522 -14.54027 11.898208
-5.4844532 -14.440269 11.898208
-5.3244534 -14.34027 11.898208
-5.139452 -14.240272 11.898208
-4.974453 -14.140272 11.898208
-4.7719536 -14.04027 11.898208
-4.5594521 -13.940269 11.898208
-4.2619534 -13.84027 11.898208
-4.0269527 -13.740272 11.898208
-3.7494526 -13.640272 11.898208
-3.6019535 -13.54027 11.898208
-3.3569527 -13.440269 11.898208
-3.1969528 -13.34027 11.898208
-2.769453 -13.240272 11.898208
-2.769453 -13.14027 11.898207
-14.484454 25.659729 11.898207
-14.484453 25.759731 11.898208
-14.574454 25.85973 11.898208
-14.606952 25.95973 11.898208
-14.681953 26.059729 11.898208
-14.681953 26.159729 11.898208
-14.606952 26.259731 11.898208
-14.496951 26.35973 11.898208
-14.496952 26.45973 11.898207
-13.246952 -18.940269 11.998205
-13.279452 -18.840271 11.998206
-13.376953 -18.740273 11.998206
-13.394454 -18.640272 11.998206
-13.394454 -18.54027 11.998206
-13.394454 -18.440269 11.998206
-13.394454 -18.340271 11.998206
-13.246951 -18.240273 11.998206
-13.091952 -18.140272 11.998206
-12.894454 -18.04027 11.998206
-12.636954 -17.940269 11.998206
-12.414452 -17.840271 11.998206
-12.194452 -17.740273 11.998206
-11.999453 -17.640272 11.998206
-11.784453 -17.54027 11.998206
-11.611953 -17.440269 11.998206
-11.436953 -17.340271 11.998206
-11.281952 -17.240273 11.998206
-11.114452 -17.140272 11.998206
-10.946953 -17.04027 11.998206
-10.794453 -16.940269 11.998206
-10.606953 -16.840271 11.998206
-10.406952 -16.740273 11.998206
-10.226954 -16.640272 11.998206
-10.006952 -16.54027 11.998206
-9.7744522 -16.440269 11.998206
-9.581954 -16.340271 11.998206
-9.3719521 -16.240273 11.998206
-9.1494522 -16.140272 11.998206
-8.9369526 -16.04027 11.998206
-8.724453 -15.940269 11.998206
-8.5169525 -15.84027 11.998206
-8.2669525 -15.740272 11.998206
-8.0169525 -15.640272 11.998206
-7.8019524 -15.54027 11.998206
-7.539453 -15.440269 11.998206
-7.3044524 -15.34027 11.998206
-7.0794525 -15.240272 11.998206
-6.8644524 -15.140272 11.998206
-6.6294518 -15.04027 11.998206
-6.349453 -14.940269 11.998206
-6.144453 -14.84027 11.998206
-5.9269524 -14.740272 11.998206
-5.7619534 -14.640272 11.998206
-5.581953 -14.54027 11.998206
-5.4244518 -14.440269 11.998206
-5.2669525 -14.34027 11.998206
-5.0919533 -14.240272 11.998206
-4.9019527 -14.140272 11.998206
-4.6869526 -14.04027 11.998206
-4.4069519 -13.940269 11.998206
-4.0569534 -13.84027 11.998206
-3.7794533 -13.740272 11.998206
-3.6019535 -13.640272 11.998206
-3.3569527 -13.54027 11.998206
-3.1594524 -13.440269 11.998206
-2.6869526 -13.34027 11.998206
-2.6869526 -13.240271 11.998205
-14.484453 25.659729 11.998205
-14.484453 25.759731 11.998206
-14.574454 25.85973 11.998206
-14.681953 25.95973 11.998206
-14.681953 26.059729 11.998206
-14.694452 26.159729 11.998206
-14.694452 26.259731 11.998206
-14.606952 26.35973 11.998206
-14.496952 26.45973 11.998205
-13.246952 -18.940269 12.098206
-13.246951 -18.840271 12.098206
-13.366953 -18.740273 12.098206
-13.376953 -18.640272 12.098206
-13.394454 -18.54027 12.098206
-13.394454 -18.440269 12.098206
-13.351952 -18.340271 12.098206
-13.214454 -18.240273 12.098206
-13.091952 -18.140272 12.098206
-12.894454 -18.04027 12.098206
-12.646952 -17.940269 12.098206
-12.434452 -17.840271 12.098206
-12.204453 -17.740273 12.098206
-11.979453 -17.640272 12.098206
-11.784453 -17.54027 12.098206
-11.611953 -17.440269 12.098206
-11.436953 -17.340271 12.098206
-11.281952 -17.240273 12.098206
-11.114452 -17.140272 12.098206
-10.929453 -17.04027 12.098206
-10.731953 -16.940269 12.098206
-10.571953 -16.840271 12.098206
-10.379452 -16.740273 12.098206
-10.214454 -16.640272 12.098206
-9.9769535 -16.54027 12.098206
-9.7369528 -16.440269 12.098206
-9.5019531 -16.340271 12.098206
-9.3044529 -16.240273 12.098206
-9.0844517 -16.140272 12.098206
-8.8744526 -16.04027 12.098206
-8.6794529 -15.940269 12.098206
-8.4644537 -15.84027 12.098206
-8.1894531 -15.740272 12.098206
-7.9844527 -15.640272 12.098206
-7.7144537 -15.54027 12.098206
-7.5044518 -15.440269 12.098206
-7.2294531 -15.34027 12.098206
-6.9969521 -15.240272 12.098206
-6.7669525 -15.140272 12.098206
-6.5219536 -15.04027 12.098206
-6.2719536 -14.940269 12.098206
-6.081953 -14.84027 12.098206
-5.8919525 -14.740272 12.098206
-5.706953 -14.640272 12.098206
-5.5319519 -14.54027 12.098206
-5.3594532 -14.440269 12.098206
-5.1919518 -14.34027 12.098206
-5.036953 -14.240272 12.098206
-4.8169518 -14.140272 12.098206
-4.5869522 -14.04027 12.098206
-4.2719536 -13.940269 12.098206
-3.9369526 -13.84027 12.098206
-3.6419525 -13.740272 12.098206
-3.3619518 -13.640272 12.098206
-3.1019535 -13.54027 12.098206
-2.6844521 -13.440269 12.098206
-2.6844521 -13.340269 12.098206
-14.574453 25.759729 12.098206
-14.574454 25.85973 12.098206
-14.681953 25.95973 12.098206
-14.694452 26.059729 12.098206
-14.746951 26.159729 12.098206
-14.746951 26.259731 12.098206
-14.694452 26.35973 12.098206
-14.496951 26.45973 12.098206
-14.496952 26.559729 12.098206
-13.196953 -18.940269 12.198207
-13.246951 -18.840271 12.198206
-13.366953 -18.740273 12.198206
-13.366953 -18.640272 12.198206
-13.366953 -18.54027 12.198206
-13.366953 -18.440269 12.198206
-13.351952 -18.340271 12.198206
-13.214454 -18.240273 12.198206
-13.084452 -18.140272 12.198206
-12.894454 -18.04027 12.198206
-12.646952 -17.940269 12.198206
-12.439453 -17.840271 12.198206
-12.204453 -17.740273 12.198206
-11.964454 -17.640272 12.198206
-11.784453 -17.54027 12.198206
-11.604453 -17.440269 12.198206
-11.436953 -17.340271 12.198206
-11.264452 -17.240273 12.198206
-11.109453 -17.140272 12.198206
-10.929453 -17.04027 12.198206
-10.731953 -16.940269 12.198206
-10.554453 -16.840271 12.198206
-10.379452 -16.740273 12.198206
-10.166953 -16.640272 12.198206
-9.9319534 -16.54027 12.198206
-9.6994543 -16.440269 12.198206
-9.4944534 -16.340271 12.198206
-9.264452 -16.240273 12.198206
-9.0294533 -16.140272 12.198206
-8.8194523 -16.04027 12.198206
-8.6019535 -15.940269 12.198206
-8.3794518 -15.84027 12.198206
-8.1644535 -15.740272 12.198206
-7.9019537 -15.640272 12.198206
-7.6544533 -15.54027 12.198206
-7.4219527 -15.440269 12.198206
-7.1594534 -15.34027 12.198206
-6.9169531 -15.240272 12.198206
-6.6894531 -15.140272 12.198206
-6.4344521 -15.04027 12.198206
-6.1994534 -14.940269 12.198206
-6.0094528 -14.84027 12.198206
-5.7594528 -14.740272 12.198206
-5.6219521 -14.640272 12.198206
-5.4369526 -14.54027 12.198206
-5.2794533 -14.440269 12.198206
-5.1319523 -14.34027 12.198206
-4.9194527 -14.240272 12.198206
-4.6744518 -14.140272 12.198206
-4.3669529 -14.04027 12.198206
-4.0569534 -13.940269 12.198206
-3.7169533 -13.84027 12.198206
-3.3619518 -13.740272 12.198206
-3.0019531 -13.640271 12.198206
-2.764452 -13.54027 12.198206
-2.6844521 -13.440269 12.198207
-14.574453 25.759731 12.198207
-14.574454 25.85973 12.198206
-14.681953 25.95973 12.198206
-14.746951 26.059729 12.198206
-14.776954 26.159729 12.198206
-14.776954 26.259731 12.198206
-14.746951 26.35973 12.198206
-14.594452 26.45973 12.198206
-14.496952 26.559729 12.198207
-13.196953 -18.940269 12.298206
-13.196953 -18.840271 12.298206
-13.341952 -18.740273 12.298206
-13.366953 -18.640272 12.298206
-13.366953 -18.54027 12.298206
-13.364454 -18.440269 12.298206
-13.351952 -18.340271 12.298206
-13.216952 -18.240273 12.298206
-13.084452 -18.140272 12.298206
-12.889452 -18.04027 12.298206
-12.649452 -17.940269 12.298206
-12.439453 -17.840271 12.298206
-12.204453 -17.740273 12.298206
-11.964454 -17.640272 12.298206
-11.761954 -17.54027 12.298206
-11.566952 -17.440269 12.298206
-11.416953 -17.340271 12.298206
-11.244453 -17.240273 12.298206
-11.106953 -17.140272 12.298206
-10.916953 -17.04027 12.298206
-10.731953 -16.940269 12.298206
-10.536953 -16.840271 12.298206
-10.356953 -16.740273 12.298206
-10.119453 -16.640272 12.298206
-9.8644524 -16.54027 12.298206
-9.6494522 -16.440269 12.298206
-9.4494543 -16.340271 12.298206
-9.2269535 -16.240273 12.298206
-8.9844532 -16.140272 12.298206
-8.7844534 -16.04027 12.298206
-8.576952 -15.940269 12.298206
-8.3019524 -15.84027 12.298206
-8.0644531 -15.740272 12.298206
-7.8169518 -15.640272 12.298206
-7.5844512 -15.54027 12.298206
-7.3744521 -15.440269 12.298206
-7.1069527 -15.34027 12.298206
-6.8419533 -15.240272 12.298206
-6.5794525 -15.140272 12.298206
-6.3344536 -15.04027 12.298206
-6.1344528 -14.940269 12.298206
-5.8819523 -14.84027 12.298206
-5.6844521 -14.740272 12.298206
-5.4994526 -14.640272 12.298206
-5.3519535 -14.54027 12.298206
-5.1819534 -14.440269 12.298206
-5.0294533 -14.34027 12.298206
-4.786953 -14.240272 12.298206
-4.5494518 -14.140272 12.298206
-4.1819534 -14.04027 12.298206
-3.7844524 -13.940269 12.298206
-3.4319534 -13.84027 12.298206
-2.8744526 -13.740272 12.298206
-2.764452 -13.64027 12.298206
-14.574453 25.759731 12.298206
-14.591952 25.85973 12.298206
-14.711952 25.95973 12.298206
-14.776954 26.059729 12.298206
-14.811953 26.159729 12.298206
-14.811953 26.259731 12.298206
-14.776954 26.35973 12.298206
-14.641953 26.45973 12.298206
-14.594452 26.559729 12.298206
-13.196953 -18.940269 12.398207
-13.196953 -18.840271 12.398208
-13.341952 -18.740273 12.398208
-13.364454 -18.640272 12.398208
-13.364454 -18.54027 12.398208
-13.364454 -18.440269 12.398208
-13.319452 -18.340271 12.398208
-13.216952 -18.240273 12.398208
-13.084452 -18.140272 12.398208
-12.881952 -18.04027 12.398208
-12.679453 -17.940269 12.398208
-12.424453 -17.840271 12.398208
-12.204453 -17.740273 12.398208
-11.964454 -17.640272 12.398208
-11.761954 -17.54027 12.398208
-11.566952 -17.440269 12.398208
-11.416953 -17.340271 12.398208
-11.231953 -17.240273 12.398208
-11.069452 -17.140272 12.398208
-10.916953 -17.04027 12.398208
-10.731953 -16.940269 12.398208
-10.516953 -16.840271 12.398208
-10.324454 -16.740273 12.398208
-10.079453 -16.640272 12.398208
-9.8169518 -16.54027 12.398208
-9.6269531 -16.440269 12.398208
-9.4044533 -16.340271 12.398208
-9.1894531 -16.240273 12.398208
-8.9769535 -16.140272 12.398208
-8.7194519 -16.04027 12.398208
-8.4644537 -15.940269 12.398208
-8.2494526 -15.84027 12.398208
-8.0069523 -15.740272 12.398208
-7.7569518 -15.640272 12.398208
-7.5344534 -15.54027 12.398208
-7.2819519 -15.440269 12.398208
-7.0144515 -15.34027 12.398208
-6.724453 -15.240272 12.398208
-6.4244528 -15.140272 12.398208
-6.2294521 -15.04027 12.398208
-6.0019531 -14.940269 12.398208
-5.7669525 -14.84027 12.398208
-5.5869522 -14.740272 12.398208
-5.4144535 -14.640272 12.398208
-5.2769527 -14.54027 12.398208
-5.0944519 -14.440269 12.398208
-4.9144535 -14.34027 12.398208
-4.6719532 -14.240272 12.398208
-4.3569527 -14.140272 12.398208
-3.8594532 -14.04027 12.398208
-3.4819527 -13.940269 12.398208
-2.8744526 -13.84027 12.398208
-2.764452 -13.740271 12.398207
-14.591953 25.759729 12.398207
-14.636954 25.85973 12.398208
-14.714454 25.95973 12.398208
-14.811953 26.059729 12.398208
-14.829453 26.159729 12.398208
-14.829453 26.259731 12.398208
-14.811953 26.35973 12.398208
-14.701952 26.45973 12.398208
-14.641953 26.559729 12.398207
-8.0519524 26.759729 12.398207
-7.7119522 26.85973 12.398207
-13.196953 -18.940269 12.498205
-13.231952 -18.840271 12.498206
-13.331954 -18.740273 12.498206
-13.364454 -18.640272 12.498206
-13.364454 -18.54027 12.498206
-13.364454 -18.440269 12.498206
-13.319452 -18.340271 12.498206
-13.204453 -18.240273 12.498206
-13.074454 -18.140272 12.498206
-12.881952 -18.04027 12.498206
-12.679453 -17.940269 12.498206
-12.414452 -17.840271 12.498206
-12.184452 -17.740273 12.498206
-11.966953 -17.640272 12.498206
-11.761954 -17.54027 12.498206
-11.556953 -17.440269 12.498206
-11.391953 -17.340271 12.498206
-11.231953 -17.240273 12.498206
-11.054453 -17.140272 12.498206
-10.889452 -17.04027 12.498206
-10.731953 -16.940269 12.498206
-10.491953 -16.840271 12.498206
-10.259453 -16.740273 12.498206
-10.039454 -16.640272 12.498206
-9.7744522 -16.54027 12.498206
-9.5444527 -16.440269 12.498206
-9.3344517 -16.340271 12.498206
-9.1194534 -16.240273 12.498206
-8.9069519 -16.140272 12.498206
-8.6644535 -16.04027 12.498206
-8.4094534 -15.940269 12.498206
-8.1694527 -15.84027 12.498206
-7.9344521 -15.740272 12.498206
-7.6869521 -15.640272 12.498206
-7.4519515 -15.54027 12.498206
-7.1769524 -15.440269 12.498206
-6.9244528 -15.34027 12.498206
-6.6044531 -15.240272 12.498206
-6.2969532 -15.140272 12.498206
-6.0344524 -15.04027 12.498206
-5.8419533 -14.940269 12.498206
-5.6244526 -14.84027 12.498206
-5.4619522 -14.740272 12.498206
-5.3369522 -14.640272 12.498206
-5.206953 -14.54027 12.498206
-5.0094528 -14.440269 12.498206
-4.7894535 -14.34027 12.498206
-4.536953 -14.240272 12.498206
-4.0669518 -14.14027 12.498205
-3.5844536 -14.04027 12.498206
-2.8769531 -13.940269 12.498206
-2.764452 -13.840269 12.498205
-14.714453 25.85973 12.498205
-14.744453 25.95973 12.498206
-14.829453 26.059729 12.498206
-14.876953 26.159729 12.498206
-14.876953 26.259731 12.498206
-14.876953 26.35973 12.498206
-14.786955 26.45973 12.498206
-14.701952 26.559729 12.498206
-14.641953 26.659729 12.498205
-8.1469517 26.759731 12.498205
-7.7119522 26.85973 12.498206
-7.7119522 26.95973 12.498205
-13.231953 -18.940269 12.598206
-13.231952 -18.840271 12.598206
-13.331954 -18.740273 12.598206
-13.361953 -18.640272 12.598206
-13.364454 -18.54027 12.598206
-13.361953 -18.440269 12.598206
-13.311953 -18.340271 12.598206
-13.184451 -18.240273 12.598206
-13.074454 -18.140272 12.598206
-12.881952 -18.04027 12.598206
-12.679453 -17.940269 12.598206
-12.414452 -17.840271 12.598206
-12.184452 -17.740273 12.598206
-11.971953 -17.640272 12.598206
-11.759453 -17.54027 12.598206
-11.556953 -17.440269 12.598206
-11.391953 -17.340271 12.598206
-11.214454 -17.240273 12.598206
-11.054453 -17.140272 12.598206
-10.884453 -17.04027 12.598206
-10.676952 -16.940269 12.598206
-10.491953 -16.840271 12.598206
-10.254452 -16.740273 12.598206
-9.9919529 -16.640272 12.598206
-9.7719517 -16.54027 12.598206
-9.4944534 -16.440269 12.598206
-9.2669525 -16.340271 12.598206
-9.0594521 -16.240273 12.598206
-8.8219528 -16.140272 12.598206
-8.5719528 -16.04027 12.598206
-8.3294525 -15.940269 12.598206
-8.1069527 -15.84027 12.598206
-7.8619528 -15.740272 12.598206
-7.6069527 -15.640272 12.598206
-7.3444519 -15.54027 12.598206
-7.0944519 -15.440269 12.598206
-6.8044524 -15.34027 12.598206
-6.4494543 -15.240272 12.598206
-6.1344528 -15.140272 12.598206
-5.9019527 -15.04027 12.598206
-5.6844521 -14.940269 12.598206
-5.4994526 -14.84027 12.598206
-5.3794518 -14.740272 12.598206
-5.2269535 -14.640272 12.598206
-5.1069527 -14.54027 12.598206
-4.9094524 -14.440269 12.598206
-4.6369534 -14.34027 12.598206
-4.3419533 -14.240271 12.598206
-4.0669518 -14.14027 12.598206
-2.764452 -14.04027 12.598206
-2.764452 -13.940269 12.598206
-14.744453 25.859732 12.598206
-14.744453 25.95973 12.598206
-14.876953 26.059729 12.598206
-14.891953 26.159729 12.598206
-14.911955 26.259731 12.598206
-14.911955 26.35973 12.598206
-14.876953 26.45973 12.598206
-14.786954 26.559729 12.598206
-8.1469517 26.759729 12.598206
-8.1469517 26.859732 12.598206
-7.7119522 26.95973 12.598206
-13.231953 -18.940269 12.698207
-13.304453 -18.840271 12.698206
-13.354453 -18.740273 12.698206
-13.364454 -18.640272 12.698206
-13.361953 -18.54027 12.698206
-13.316954 -18.440269 12.698206
-13.259453 -18.340271 12.698206
-13.184451 -18.240273 12.698206
-13.081954 -18.140272 12.698206
-12.881952 -18.04027 12.698206
-12.706954 -17.940269 12.698206
-12.429453 -17.840271 12.698206
-12.184452 -17.740273 12.698206
-11.971953 -17.640272 12.698206
-11.759453 -17.54027 12.698206
-11.576952 -17.440269 12.698206
-11.384453 -17.340271 12.698206
-11.214454 -17.240273 12.698206
-11.039454 -17.140272 12.698206
-10.881952 -17.04027 12.698206
-10.666953 -16.940269 12.698206
-10.446953 -16.840271 12.698206
-10.199454 -16.740273 12.698206
-9.9469528 -16.640272 12.698206
-9.7369528 -16.54027 12.698206
-9.4644537 -16.440269 12.698206
-9.2169533 -16.340271 12.698206
-9.0069523 -16.240273 12.698206
-8.7769537 -16.140272 12.698206
-8.5294533 -16.04027 12.698206
-8.3069534 -15.940269 12.698206
-8.0469532 -15.84027 12.698206
-7.8019524 -15.740272 12.698206
-7.5544524 -15.640272 12.698206
-7.2519531 -15.54027 12.698206
-6.9819527 -15.440269 12.698206
-6.6469512 -15.34027 12.698206
-6.2944527 -15.240272 12.698206
-5.9344521 -15.140272 12.698206
-5.6844521 -15.04027 12.698206
-5.5294533 -14.940269 12.698206
-5.3844528 -14.84027 12.698206
-5.264452 -14.740272 12.698206
-5.1344528 -14.640272 12.698206
-4.9669533 -14.54027 12.698206
-4.7519531 -14.440269 12.698206
-4.4594536 -14.340269 12.698206
-4.3419533 -14.240271 12.698206
-14.744453 25.859732 12.698207
-14.744453 25.95973 12.698206
-14.891953 26.059729 12.698206
-14.939453 26.159729 12.698206
-14.951952 26.259731 12.698206
-14.951952 26.35973 12.698206
-14.941954 26.45973 12.698206
-14.876953 26.559729 12.698206
-14.876953 26.659729 12.698206
-13.304453 -18.940269 12.798206
-13.306953 -18.840271 12.798206
-13.364454 -18.740273 12.798206
-13.364454 -18.640272 12.798206
-13.364454 -18.54027 12.798206
-13.316954 -18.440269 12.798206
-13.259453 -18.340271 12.798206
-13.169452 -18.240273 12.798206
-13.086952 -18.140272 12.798206
-12.904452 -18.04027 12.798206
-12.706954 -17.940269 12.798206
-12.429453 -17.840271 12.798206
-12.184452 -17.740273 12.798206
-11.961952 -17.640272 12.798206
-11.759453 -17.54027 12.798206
-11.576952 -17.440269 12.798206
-11.374453 -17.340271 12.798206
-11.194452 -17.240273 12.798206
-11.016953 -17.140272 12.798206
-10.846953 -17.04027 12.798206
-10.666953 -16.940269 12.798206
-10.416953 -16.840271 12.798206
-10.186953 -16.740273 12.798206
-9.9344521 -16.640272 12.798206
-9.6994543 -16.54027 12.798206
-9.4369526 -16.440269 12.798206
-9.1919518 -16.340271 12.798206
-8.956954 -16.240273 12.798206
-8.7294531 -16.140272 12.798206
-8.4844532 -16.04027 12.798206
-8.2094517 -15.940269 12.798206
-7.9644537 -15.84027 12.798206
-7.706954 -15.740272 12.798206
-7.474453 -15.640272 12.798206
-7.1694527 -15.54027 12.798206
-6.7719512 -15.440269 12.798206
-6.4319534 -15.34027 12.798206
-6.0494518 -15.240272 12.798206
-5.724453 -15.140272 12.798206
-5.5569534 -15.04027 12.798206
-5.389452 -14.940269 12.798206
-5.264452 -14.84027 12.798206
-5.1494522 -14.740272 12.798206
-4.9994526 -14.640272 12.798206
-4.831953 -14.54027 12.798206
-4.5594521 -14.440269 12.798206
-4.1669521 -14.340269 12.798206
-14.744453 25.85973 12.798206
-14.781952 25.95973 12.798206
-14.939453 26.059729 12.798206
-15.006952 26.159729 12.798206
-15.026954 26.259731 12.798206
-15.026954 26.35973 12.798206
-15.006952 26.45973 12.798206
-14.941954 26.559729 12.798206
-14.894453 26.659729 12.798206
-13.306953 -19.040272 12.898207
-13.306953 -18.940269 12.898208
-13.346953 -18.840271 12.898208
-13.364454 -18.740273 12.898208
-13.364454 -18.640272 12.898208
-13.364454 -18.54027 12.898208
-13.316954 -18.440269 12.898208
-13.259453 -18.340271 12.898208
-13.169452 -18.240273 12.898208
-13.094452 -18.140272 12.898208
-12.944452 -18.04027 12.898208
-12.706954 -17.940269 12.898208
-12.426952 -17.840271 12.898208
-12.184452 -17.740273 12.898208
-11.954453 -17.640272 12.898208
-11.759453 -17.54027 12.898208
-11.574454 -17.440269 12.898208
-11.351954 -17.340271 12.898208
-11.176952 -17.240273 12.898208
-11.011954 -17.140272 12.898208
-10.809452 -17.04027 12.898208
-10.624453 -16.940269 12.898208
-10.389452 -16.840271 12.898208
-10.136954 -16.740273 12.898208
-9.9169531 -16.640272 12.898208
-9.6469517 -16.54027 12.898208
-9.389452 -16.440269 12.898208
-9.1819534 -16.340271 12.898208
-8.9144535 -16.240273 12.898208
-8.661953 -16.140272 12.898208
-8.4169531 -16.04027 12.898208
-8.1344528 -15.940269 12.898208
-7.8719521 -15.84027 12.898208
-7.6419525 -15.740272 12.898208
-7.3544531 -15.640272 12.898208
-7.019454 -15.54027 12.898208
-6.6544533 -15.440269 12.898208
-6.1719532 -15.34027 12.898208
-5.8044529 -15.240272 12.898208
-5.5569534 -15.140272 12.898208
-5.389452 -15.04027 12.898208
-5.2544518 -14.940269 12.898208
-5.1494522 -14.84027 12.898208
-4.9994526 -14.740272 12.898208
-4.8669529 -14.640272 12.898208
-4.6369534 -14.54027 12.898208
-4.1669521 -14.440269 12.898208
-4.1669521 -14.340269 12.898207
-14.939453 25.95973 12.898207
-15.006952 26.059729 12.898208
-15.031952 26.159729 12.898208
-15.124453 26.259731 12.898208
-15.124453 26.35973 12.898208
-15.116953 26.45973 12.898208
-15.006952 26.559729 12.898208
-14.894454 26.659729 12.898208
-14.894453 26.759729 12.898207
-13.306953 -19.040272 12.998205
-13.346953 -18.940269 12.998206
-13.384453 -18.840271 12.998206
-13.391953 -18.740273 12.998206
-13.391953 -18.640272 12.998206
-13.364454 -18.54027 12.998206
-13.341952 -18.440269 12.998206
-13.284453 -18.340271 12.998206
-13.176954 -18.240273 12.998206
-13.119453 -18.140272 12.998206
-12.971953 -18.04027 12.998206
-12.709452 -17.940269 12.998206
-12.411953 -17.840271 12.998206
-12.171953 -17.740273 12.998206
-11.946953 -17.640272 12.998206
-11.736953 -17.54027 12.998206
-11.551952 -17.440269 12.998206
-11.351954 -17.340271 12.998206
-11.176952 -17.240273 12.998206
-10.986953 -17.140272 12.998206
-10.791953 -17.04027 12.998206
-10.591953 -16.940269 12.998206
-10.369453 -16.840271 12.998206
-10.126953 -16.740273 12.998206
-9.8719521 -16.640272 12.998206
-9.6219521 -16.54027 12.998206
-9.3369522 -16.440269 12.998206
-9.1269531 -16.340271 12.998206
-8.8594532 -16.240273 12.998206
-8.5644531 -16.140272 12.998206
-8.3519535 -16.04027 12.998206
-8.0669518 -15.940269 12.998206
-7.8069534 -15.84027 12.998206
-7.5519524 -15.740272 12.998206
-7.2369528 -15.640272 12.998206
-6.8544531 -15.54027 12.998206
-6.2794533 -15.440269 12.998206
-5.8044529 -15.34027 12.998206
-5.5319519 -15.240272 12.998206
-5.3419533 -15.140272 12.998206
-5.1894531 -15.04027 12.998206
-5.0719528 -14.940269 12.998206
-4.9694519 -14.84027 12.998206
-4.8669529 -14.740272 12.998206
-4.6369534 -14.640272 12.998206
-4.2669525 -14.54027 12.998206
-4.1669521 -14.440269 12.998205
-15.006953 25.95973 12.998205
-15.031952 26.059729 12.998206
-15.124453 26.159729 12.998206
-15.184451 26.259731 12.998206
-15.191954 26.35973 12.998206
-15.191954 26.45973 12.998206
-15.149452 26.559729 12.998206
-15.001953 26.659729 12.998206
-14.894453 26.759731 12.998205
-13.336952 -19.040272 13.098206
-13.384453 -18.940269 13.098206
-13.404452 -18.840271 13.098206
-13.434451 -18.740273 13.098206
-13.434451 -18.640272 13.098206
-13.396952 -18.54027 13.098206
-13.389452 -18.440269 13.098206
-13.341952 -18.340271 13.098206
-13.211952 -18.240273 13.098206
-13.154452 -18.140272 13.098206
-13.019454 -18.04027 13.098206
-12.716953 -17.940269 13.098206
-12.411953 -17.840271 13.098206
-12.171953 -17.740273 13.098206
-11.946953 -17.640272 13.098206
-11.736953 -17.54027 13.098206
-11.531952 -17.440269 13.098206
-11.321953 -17.340271 13.098206
-11.144454 -17.240273 13.098206
-10.986953 -17.140272 13.098206
-10.761954 -17.04027 13.098206
-10.536953 -16.940269 13.098206
-10.306953 -16.840271 13.098206
-10.086952 -16.740273 13.098206
-9.831954 -16.640272 13.098206
-9.5694523 -16.54027 13.098206
-9.3194523 -16.440269 13.098206
-9.0744543 -16.340271 13.098206
-8.7944527 -16.240273 13.098206
-8.5594521 -16.140272 13.098206
-8.2844534 -16.04027 13.098206
-7.9994521 -15.940269 13.098206
-7.7344532 -15.840269 13.098206
-7.4344521 -15.740271 13.098206
-7.0469527 -15.640271 13.098206
-6.581954 -15.54027 13.098206
-5.8044529 -15.440269 13.098206
-5.5044518 -15.34027 13.098206
-5.224453 -15.240272 13.098206
-5.0919533 -15.140272 13.098206
-4.9844532 -15.04027 13.098206
-4.9069519 -14.940269 13.098206
-4.7744522 -14.84027 13.098206
-4.6319523 -14.740272 13.098206
-4.3744526 -14.640271 13.098206
-4.1669521 -14.54027 13.098206
-15.031952 25.95973 13.098206
-15.099455 26.059729 13.098206
-15.184451 26.159729 13.098206
-15.241953 26.259731 13.098206
-15.241953 26.35973 13.098206
-15.239454 26.45973 13.098206
-15.224455 26.559729 13.098206
-15.149452 26.659729 13.098206
-14.894454 26.759729 13.098206
-14.894453 26.85973 13.098206
-8.9894524 27.059729 13.098206
-8.9894524 27.159729 13.098206
-13.356953 -19.040272 13.198207
-13.404452 -18.940269 13.198206
-13.434451 -18.840271 13.198206
-13.454453 -18.740273 13.198206
-13.454453 -18.640272 13.198206
-13.434451 -18.54027 13.198206
-13.434451 -18.440269 13.198206
-13.389452 -18.340271 13.198206
-13.254454 -18.240273 13.198206
-13.176954 -18.140272 13.198206
-13.044452 -18.04027 13.198206
-12.716953 -17.940269 13.198206
-12.441952 -17.840271 13.198206
-12.171953 -17.740273 13.198206
-11.936953 -17.640272 13.198206
-11.736953 -17.54027 13.198206
-11.521952 -17.440269 13.198206
-11.294453 -17.340271 13.198206
-11.101954 -17.240273 13.198206
-10.956954 -17.140272 13.198206
-10.734453 -17.04027 13.198206
-10.511954 -16.940269 13.198206
-10.284453 -16.840271 13.198206
-10.029453 -16.740273 13.198206
-9.7394524 -16.640272 13.198206
-9.4869528 -16.54027 13.198206
-9.2669525 -16.440269 13.198206
-8.9819527 -16.340271 13.198206
-8.7369528 -16.240273 13.198206
-8.4544525 -16.140272 13.198206
-8.2094517 -16.04027 13.198206
-7.914453 -15.940269 13.198206
-7.7344532 -15.840269 13.198207
-6.7744522 -15.64027 13.198206
-5.9869518 -15.540271 13.198207
-5.3119526 -15.440269 13.198206
-5.0719528 -15.34027 13.198206
-4.9694519 -15.240272 13.198206
-4.9094524 -15.140272 13.198206
-4.8094521 -15.04027 13.198206
-4.6744518 -14.940269 13.198206
-4.5319519 -14.84027 13.198206
-4.331953 -14.740272 13.198206
-4.1669521 -14.64027 13.198206
-15.184452 26.059729 13.198206
-15.241953 26.159729 13.198206
-15.274452 26.259731 13.198206
-15.284453 26.35973 13.198206
-15.304453 26.45973 13.198206
-15.304453 26.559729 13.198206
-15.224455 26.659729 13.198206
-15.089454 26.759731 13.198206
-14.894453 26.859732 13.198207
-9.1969528 27.059729 13.198207
-8.9894524 27.159729 13.198206
-8.9894524 27.259729 13.198206
-13.356953 -19.040272 13.298206
-13.421953 -18.940269 13.298205
-13.464454 -18.840271 13.298205
-13.484453 -18.740273 13.298205
-13.484453 -18.640272 13.298205
-13.484453 -18.54027 13.298205
-13.484453 -18.440269 13.298205
-13.434451 -18.340271 13.298205
