# .PCD v0.7 - Point Cloud Data file format
VERSION 0.7
FIELDS x y z
SIZE 4 4 4
TYPE F F F
COUNT 1 1 1
WIDTH 1505
HEIGHT 1
VIEWPOINT 0 0 0 1 0 0 0
POINTS 1505
DATA ascii
1.8021501 3.6722343 -0.099453926
1.7589309 3.7433939 -0.030147029
1.822273 3.754632 -0.089552887
1.773798 3.8426468 -0.015295697
1.8408084 3.8528128 -0.071165256
1.9006604 3.8875902 -0.099453926
1.791538 3.9250429 -0.00044441223
1.8487227 3.9487617 -0.033447329
1.932933 3.9624958 -0.081452027
2.0021741 3.9999499 -0.099453926
1.8720281 4.0249186 -0.0086951256
1.9552546 4.0519676 -0.027946843
2.0425527 4.0602908 -0.066450492
2.1359241 4.0748563 -0.091203056
2.2178154 4.0935822 -0.099453926
2.0720518 4.1185517 -0.0086951256
2.1643558 4.1310358 -0.025196552
2.2544568 4.1341577 -0.054074366
2.3501139 4.1591258 -0.043760896
2.4393137 4.1638074 -0.06232512
2.5499878 4.1778522 -0.076764032
2.4652925 4.2059422 -0.00044441223
2.5644035 4.2059422 -0.035097409
-4.6352615 4.7771025 -0.00044441223
-4.5690174 4.7537656 -0.030738104
-4.4698014 4.7515664 -0.082577147
-4.6124353 4.8145561 -0.00044441223
-4.561121 4.8244543 -0.028025396
1.3515961 -2.2417338 0.061000321
1.2711549 -2.1423736 0.061437134
1.3047929 -2.1985521 0.06143713
1.2466177 -2.0487401 0.061437134
1.1910653 -1.9363801 0.024308205
1.2362099 -1.9584109 0.067989297
1.1755482 -1.8521101 0.024308205
1.2385848 -1.8521111 0.073813438
1.1891632 -1.7772044 0.024308205
1.2561808 -1.7517891 0.057901043
1.3292704 -1.725706 0.092377901
1.2693534 -1.6835711 0.024308205
1.3484168 -1.6718676 0.055248976
1.4516575 -1.6414361 0.070719361
1.5210352 -1.618028 0.086189747
1.5623811 -1.5930586 0.053186256
1.6543244 -1.5581031 0.066387653
1.7311205 -1.5150318 0.06143713
1.7853307 -1.4869422 0.06143713
1.8508545 -1.4494891 0.06143713
1.9249878 -1.4120353 0.06143713
1.9771171 -1.3852834 0.056132998
2.0604393 -1.3496131 0.065562569
2.1603012 -1.3184028 0.06143713
2.2290778 -1.2996755 0.06143713
2.3504782 -1.2729234 0.056132998
2.4029229 -1.2497382 0.073813438
-0.059303459 2.6664188 0.03473036
-0.1129952 2.7743979 0.050435968
-0.088226281 2.726542 0.04857548
-0.15587434 2.8489223 0.060914185
-0.21170579 2.962497 0.063912392
-0.18992139 2.9175534 0.054011349
-0.23671384 3.0448935 0.061437134
-0.23674236 3.145853 0.059822831
-0.19809079 3.194706 0.098566055
-0.20870249 3.2196746 0.032559078
-0.16321625 3.2563941 0.06653326
-0.1147972 3.307065 0.049060822
-0.056932345 3.3398361 0.06143713
0.020674469 3.3782277 0.068862915
0.070049815 3.4044437 0.054011349
0.14539428 3.4287884 0.06143713
0.23730116 3.452384 0.064902492
0.31368279 3.475605 0.045966744
1.4561625 3.4943318 0.086189747
1.5264411 3.4943318 0.036684513
1.4783872 3.5193 0.090315185
1.5472246 3.553009 0.060612045
1.610235 3.5786014 0.024308205
1.5784422 3.6307683 0.087957792
1.63604 3.6513469 0.047156774
1.6547846 3.7419372 0.072438292
1.7125498 3.7627466 0.028433641
1.6677797 3.850137 0.086189754
1.7206388 3.850137 0.036684517
1.6777503 3.9456427 0.088665016
1.7481748 3.958483 0.041988645
1.6889232 4.0280399 0.098566055
1.7540292 4.0519671 0.076563731
1.8478006 4.0631523 0.03977859
1.9264891 4.0935822 0.024308205
1.8581628 4.1263547 0.092377901
1.947713 4.1341572 0.06143713
2.046504 4.1572533 0.054011349
2.1501393 4.1747308 0.049060822
2.2544565 4.1872149 0.036684513
2.1805737 4.2059422 0.098566055
2.2691731 4.2168655 0.086189747
2.339602 4.212184 0.049060822
-4.73142 4.7693005 0.0774232
-4.6687651 4.7594171 0.032559078
-4.578197 4.7256045 0.024308205
-4.7296948 4.8470864 0.07585489
-4.646719 4.8368845 0.024308205
-4.7025356 4.917552 0.098566055
1.9517176 -2.6248057 0.19050388
1.858327 -2.5507903 0.19521865
1.9156773 -2.5871289 0.18519974
1.7649081 -2.4981775 0.19757605
1.3634269 -2.2409699 0.1599998
1.2810966 -2.1423733 0.16044714
1.3107991 -2.1985521 0.16044712
1.2783027 -2.0487394 0.16044718
1.2880596 -1.9658073 0.15160683
1.3079965 -1.9301376 0.18107431
1.2930198 -1.8614734 0.1233182
1.3270178 -1.849647 0.17021795
1.3653193 -1.7546208 0.15535097
1.4275303 -1.7179029 0.18932517
1.4594058 -1.6779532 0.15549667
1.5362326 -1.6330091 0.16539758
1.5793003 -1.5993009 0.16044712
1.6457244 -1.5618484 0.16044715
1.7306697 -1.5150317 0.16044712
1.7821778 -1.4869422 0.16044712
1.8511041 -1.4494886 0.16044715
1.9285916 -1.4120353 0.16044712
1.9625299 -1.3933089 0.16044712
2.0325837 -1.3652185 0.16044712
2.1438575 -1.3277653 0.16044712
2.2571592 -1.2996755 0.16044712
2.3183582 -1.2754412 0.16335919
2.4016211 -1.2552001 0.1233182
-0.1632053 2.8729925 0.13474248
-0.21058427 2.9737325 0.13321924
-0.18265854 2.9454811 0.1664061
-0.21768165 3.0448937 0.14426261
-0.1861628 3.044893 0.19050388
-0.21070445 3.1251497 0.13392647
-0.1725796 3.1572521 0.17136741
-0.13381846 3.2364821 0.15378296
-0.075553313 3.2776382 0.17282343
-0.03215456 3.3187699 0.15116489
0.048185375 3.3576279 0.1629224
0.11966538 3.3819721 0.18519974
0.15570582 3.4087241 0.15514299
0.26014966 3.440891 0.16497503
1.262045 3.4880896 0.18519974
1.3447976 3.4880893 0.13816977
1.2981856 3.5130582 0.19757605
1.3609129 3.5371361 0.17989561
1.4408724 3.559025 0.14807083
1.5030148 3.5879648 0.1233182
1.4707117 3.6337397 0.18382464
1.5352325 3.6526561 0.14132006
1.4994109 3.7003245 0.19757605
1.5611845 3.7456613 0.16630965
1.6132379 3.7658677 0.1233182
1.569649 3.8501377 0.17282346
1.631799 3.850137 0.1233182
1.5654187 3.9531314 0.17282343
1.6355635 3.9531326 0.1233182
1.5528166 4.0527244 0.18182443
1.6477017 4.0561285 0.1356945
1.7144518 4.0935822 0.1233182
1.583505 4.1216722 0.19757605
1.6649563 4.1347818 0.17777397
1.7574 4.1497636 0.16044712
1.8451582 4.1609983 0.13816977
1.9367006 4.1872149 0.1356945
1.8417943 4.2059422 0.19757605
1.9427073 4.212184 0.17282343
2.0524304 4.2257085 0.16457255
2.1502395 4.2309103 0.14394538
2.2916982 4.2433949 0.1233182
-4.7433619 4.7714868 0.15920955
-4.8098378 4.8562641 0.17957416
-4.7842245 4.8484073 0.14426273
-4.7305241 4.928709 0.16703026
1.9385026 -2.7088518 0.2883347
1.8704548 -2.6292636 0.28244111
1.9284852 -2.6540403 0.25012702
1.7793998 -2.5332904 0.27492699
1.8425446 -2.5684023 0.24914329
1.5811024 -2.4045446 0.29658556
1.6635177 -2.4466798 0.27464578
1.7360755 -2.4892218 0.26107112
1.5618808 -2.3858185 0.29658556
1.3550994 -2.2354548 0.25836468
1.2765608 -2.1423736 0.25945663
1.3094485 -2.1985521 0.25945687
1.2783929 -2.0487394 0.25945663
1.294822 -1.9888146 0.25203124
1.3141637 -1.9438705 0.26193196
1.3554242 -1.8521112 0.25945678
1.3916501 -1.7828224 0.25203124
1.434738 -1.7378777 0.26193196
1.4882233 -1.6835718 0.25945672
1.5327483 -1.6367542 0.25945663
1.5759968 -1.5993009 0.25945687
1.6423706 -1.5589674 0.26231271
1.7237197 -1.5136943 0.25415275
1.7719659 -1.4869422 0.25945687
1.8476009 -1.4494889 0.25945681
1.926789 -1.4120353 0.25945687
1.9722909 -1.3933089 0.25945687
2.0412936 -1.3652185 0.25945675
2.1566219 -1.3277655 0.25945675
2.2622843 -1.2954468 0.26464689
2.3133225 -1.2743399 0.2339765
-0.14898562 2.9840322 0.22851658
-0.14362943 3.0495751 0.24089238
-0.080058299 3.046454 0.28627199
-0.12923834 3.1432073 0.24398646
-0.077205062 3.1572523 0.29039741
-0.10018086 3.2134328 0.22232866
-0.046351288 3.2422447 0.25279269
0.020955006 3.2758546 0.28008381
0.058597036 3.3216302 0.24983081
0.15377022 3.3590839 0.26358217
0.23289216 3.3819721 0.28420925
0.25866815 3.4117136 0.23980059
0.34083322 3.4156806 0.27678347
0.42262292 3.4279377 0.28533438
0.52211618 3.4381521 0.29658556
0.6302371 3.4568782 0.29039741
1.0975609 3.475605 0.29658556
1.1482173 3.4880888 0.26358217
1.2182959 3.4943318 0.22232866
1.1843579 3.5130582 0.28420925
1.2580906 3.5442696 0.26564488
1.339131 3.5754807 0.23882993
1.3630157 3.6374559 0.27183288
1.4342382 3.6597502 0.23057921
1.386184 3.7096879 0.29658556
1.4457846 3.7471395 0.26358208
1.5070696 3.7658679 0.22232866
1.452971 3.8524795 0.26873887
1.5069189 3.8407733 0.22232866
1.3854834 3.9531326 0.29658547
1.4578973 3.9531326 0.24708042
1.3608954 4.0561295 0.28420922
1.4470323 4.0561295 0.23470432
1.3697661 4.1341572 0.28833479
1.4585652 4.1385269 0.25698158
1.5366528 4.1591249 0.24708064
1.6425711 4.1809726 0.23057921
1.5360518 4.2059422 0.29658556
1.6494588 4.2209234 0.27678344
1.7658521 4.2300191 0.25415277
1.8502035 4.2396502 0.24213019
1.9481133 4.2496371 0.23057921
2.0478249 4.2621222 0.22232866
-4.7607355 4.7798882 0.25845337
-4.8211699 4.861372 0.25945672
-4.7953396 4.805192 0.25945687
-4.8140602 4.9175515 0.27183294
-4.7677045 4.9440517 0.25969037
-4.7247605 -3.630096 0.39559555
-4.689621 -3.6077285 0.38321924
-4.6474981 -3.567934 0.3894074
-4.5115209 -3.5343828 0.38734469
-4.4394417 -3.5145216 0.38434437
-4.3997965 -3.4906871 0.39559555
-4.1997728 -3.4719603 0.39559555
1.8538905 -2.7195926 0.36987239
1.9354991 -2.7228971 0.32133818
1.7706751 -2.6367538 0.37826869
1.8371089 -2.6592259 0.33866489
1.6827662 -2.5309491 0.3894074
1.7384409 -2.5602102 0.3507317
1.5783994 -2.4162488 0.36774907
1.6490189 -2.4669676 0.35599166
1.7096462 -2.4981775 0.32133818
1.4946053 -2.3483651 0.39559555
1.5323111 -2.3764548 0.36296734
1.3379656 -2.2370613 0.3589898
1.2603433 -2.1474819 0.36071718
1.3068951 -2.1985526 0.33371449
1.2604331 -2.0487394 0.35846683
1.285496 -1.9808559 0.36774907
1.3136531 -1.9379411 0.3522788
1.3604548 -1.8521112 0.35846707
1.3951941 -1.7865676 0.35846686
1.4335626 -1.7397507 0.35846695
1.4795284 -1.6779535 0.36341727
1.5225966 -1.633009 0.35351643
1.5735191 -1.5899379 0.35846686
1.6553352 -1.5431223 0.35846692
1.7197074 -1.5056685 0.35846686
1.777179 -1.4789165 0.36377096
1.8538747 -1.4432466 0.35434157
1.921984 -1.4120353 0.35846686
1.9611783 -1.3933089 0.35846686
2.042645 -1.3652186 0.35846686
2.1436925 -1.3333838 0.35104117
2.2045305 -1.3184025 0.36938706
2.2343674 -1.2965546 0.34746578
-0.031920288 3.0703619 0.33123922
0.060599327 3.0792253 0.37909383
-0.023534918 3.1403985 0.33123925
0.0516508 3.1500492 0.37655509
0.1088531 3.194706 0.39559555
-0.0070767403 3.2134328 0.32133818
0.05472602 3.2467253 0.33783975
0.13802889 3.2482104 0.37791517
0.2255841 3.2820961 0.38734469
0.17108299 3.322047 0.33123928
0.2633464 3.3295379 0.36094207
0.35264048 3.3578954 0.36377093
0.42660925 3.3757303 0.38734469
0.38215947 3.4006991 0.32133818
0.46829581 3.4081891 0.35599166
0.55419213 3.4306607 0.36094216
0.64904088 3.4519932 0.37407166
0.81944931 3.475605 0.39147013
0.97262073 3.4943316 0.39559555
1.0667263 3.49017 0.33783984
1.0753356 3.5193 0.38734469
1.1505837 3.5454047 0.36184216
1.222801 3.5754802 0.33783999
1.1930678 3.6066911 0.39559555
1.2537358 3.6403992 0.36424226
1.3201098 3.667552 0.32752633
1.2835441 3.7377772 0.38940734
1.344775 3.7518206 0.34299666
1.2883343 3.850137 0.39559558
1.3497632 3.8501384 0.3460905
1.2622077 3.9561727 0.38016519
1.3400686 3.9488761 0.33258939
1.1731254 4.0711102 0.39064506
1.2430861 4.0491467 0.36035466
1.3068355 4.0561295 0.3213383
1.1496859 4.1456013 0.38459432
1.2603431 4.1417365 0.34255463
1.3342259 4.173171 0.32752633
1.1900643 4.2059422 0.39559555
1.2512128 4.2134323 0.38074398
1.3660614 4.2153063 0.35846686
1.4560699 4.2340317 0.36132288
1.5540723 4.252758 0.35846686
1.6415699 4.2621217 0.34609064
1.744936 4.2845941 0.35475403
1.7444854 4.3183012 0.39559555
-4.7526922 4.7843857 0.34746578
-4.8182511 4.866879 0.35337067
-4.7787352 4.8158927 0.37084302
-4.8130593 4.9175515 0.34609064
-4.7777767 4.9439077 0.36350909
-4.9319925 -3.7234318 0.49460557
-4.9136858 -3.6673687 0.49460569
-4.8296804 -3.6371715 0.47645393
-4.7769074 -3.6330872 0.43427157
-4.8100557 -3.5843205 0.49460554
-4.7468634 -3.5655935 0.457477
-4.649075 -3.5318851 0.45005128
-4.5622773 -3.5094144 0.45747703
-4.4696751 -3.4906876 0.46985325
-4.3597512 -3.4782033 0.46160236
-4.2778597 -3.4719605 0.44510078
-4.1863585 -3.4594769 0.46160236
-4.0472021 -3.4363801 0.46572784
1.6919265 -2.7135334 0.49460554
1.7564039 -2.736203 0.46171087
1.8158513 -2.7621331 0.43567121
1.6708528 -2.6433079 0.47604144
1.7259393 -2.6550124 0.42963046
1.5859078 -2.526268 0.49460554
1.6435053 -2.5574796 0.4533515
1.5545295 -2.445565 0.46160218
1.6171424 -2.491935 0.42859903
1.3906889 -2.3109117 0.49460554
1.465237 -2.3566046 0.46358272
1.51653 -2.3858185 0.43272448
1.2885747 -2.2219601 0.47604141
1.3253812 -2.2498887 0.45107564
1.2423228 -2.151737 0.45747694
1.2370068 -2.0487397 0.45747703
1.2756778 -1.9606138 0.46257305
1.3051931 -1.9238955 0.42859903
1.2987862 -1.898927 0.49460554
1.3382735 -1.8500762 0.4558627
1.3812973 -1.7695431 0.46085244
1.4175191 -1.7241457 0.45335171
1.4670117 -1.6636744 0.46211812
1.514878 -1.6227096 0.43891263
1.5626818 -1.5868169 0.46160245
1.6408412 -1.5414197 0.45410186
1.7079939 -1.5056685 0.45747697
1.762956 -1.4775789 0.45747709
1.8475012 -1.4401259 0.45747697
1.9120727 -1.4120353 0.45747706
1.9580243 -1.3933089 0.45747694
2.0385141 -1.3652186 0.45747697
2.1433322 -1.3303665 0.45541424
0.13828635 3.0823464 0.42034817
0.15115331 3.1424687 0.42946777
0.24367428 3.1675518 0.46242762
0.31528452 3.1614144 0.49460575
0.1935482 3.2134328 0.42034817
0.26118395 3.2396507 0.43024924
0.35338172 3.2508872 0.46535286
0.41840008 3.2820961 0.48635483
0.37935629 3.313307 0.42859903
0.45439038 3.3398368 0.45747721
0.52103508 3.3744814 0.47480384
0.5624615 3.4069405 0.44922611
0.65084016 3.4418972 0.46242759
0.75197375 3.475605 0.46985325
0.84107363 3.4896498 0.45747694
0.9161576 3.4943318 0.42034817
0.88912725 3.5130582 0.49460554
0.95748383 3.5280397 0.47480378
1.04836 3.5556202 0.45410156
1.1269938 3.5817218 0.42859903
1.086148 3.6207356 0.48841763
1.1467304 3.6468198 0.4539409
1.2089856 3.6722343 0.42034817
1.162711 3.7435386 0.47937337
1.2296544 3.7513969 0.43159944
1.1588893 3.8501375 0.48222944
1.2306697 3.850137 0.4327246
1.1519114 3.9470739 0.46111703
1.2166442 3.920362 0.42653632
0.97041839 4.0935822 0.47810411
1.0693293 4.085557 0.43095645
1.1676393 4.0498872 0.42034817
0.86149627 4.1684885 0.4946056
0.95093656 4.144145 0.46737799
1.0537975 4.1497617 0.42742035
0.893332 4.2059422 0.49460554
0.95800453 4.2246685 0.48635483
1.0525769 4.2288303 0.46160251
1.139788 4.2302866 0.43396211
1.3150043 4.2621217 0.44510078
1.4673176 4.2835236 0.4439221
1.5630822 4.2995753 0.44510078
1.645975 4.2995753 0.42034817
1.5937164 4.3183012 0.49460554
1.6706026 4.3183017 0.4698534
1.7283958 4.3263278 0.45217291
-4.701334 4.7864661 0.42034817
-4.6533556 4.7864661 0.4667592
-4.7482214 4.8613715 0.4480128
-4.6793685 4.8292689 0.48046148
-4.7363315 4.9313517 0.43858698
-4.6673532 4.9409599 0.48311359
-4.9490347 -3.7414894 0.56208551
-4.936923 -3.6611989 0.55453235
-4.8691621 -3.6067936 0.56391239
-4.8321309 -3.5843205 0.55648661
-4.7646303 -3.5562294 0.55648667
-4.6639423 -3.5281401 0.55648661
-4.5918608 -3.5094144 0.55648661
-4.4947019 -3.4906869 0.55648661
-4.3636055 -3.4719615 0.55648661
-4.2278552 -3.4532342 0.55648661
-4.1282921 -3.4345069 0.58123922
-4.0523071 -3.4251437 0.55648661
-3.9787252 -3.4157805 0.53173399
-3.9150538 -3.3970544 0.59361553
-3.8934298 -3.3917036 0.55236119
-3.7997243 -3.3736458 0.59361553
1.6502655 -2.81653 0.58300728
1.7066429 -2.8165298 0.5441103
1.581463 -2.7266421 0.58866507
1.6446232 -2.7509875 0.55184525
1.7112768 -2.7911153 0.52819794
1.5642334 -2.6433079 0.57505143
1.6205964 -2.6550124 0.52863979
1.5469906 -2.5523858 0.5584408
1.6051291 -2.5918107 0.51935768
1.4771312 -2.4283788 0.57111323
1.5233452 -2.4708087 0.54411024
1.3785043 -2.326071 0.55884397
1.4353027 -2.3687937 0.55311126
1.2670051 -2.2343037 0.55986184
1.3254443 -2.2770259 0.54705709
1.1924672 -2.1199007 0.58371454
1.2189918 -2.1601143 0.54932117
1.1916662 -2.0799508 0.58536464
1.2167411 -2.043232 0.55139029
1.2495911 -1.955106 0.55648655
1.2852283 -1.872175 0.56532693
1.3192086 -1.8240212 0.54411042
1.359707 -1.7510846 0.55844063
1.4051051 -1.7116612 0.51935768
1.3960952 -1.6929343 0.59361553
1.4487771 -1.6576837 0.55430222
1.5000114 -1.618028 0.55648661
1.5551728 -1.5805752 0.55648661
1.6560359 -1.5243952 0.55648679
1.7474887 -1.4775789 0.55648661
1.8370636 -1.4401257 0.55648661
1.9077181 -1.4120353 0.55648661
1.9499156 -1.3933089 0.55648661
2.0540111 -1.3592885 0.55524898
0.37180939 3.1630147 0.51935768
0.45953214 3.1714585 0.56416845
0.51561797 3.1453362 0.58911508
0.39717627 3.2134328 0.51935768
0.46520266 3.247375 0.55339229
0.50790018 3.2820961 0.58536464
0.49188232 3.313307 0.52760857
0.54229188 3.3500254 0.56158257
0.58578753 3.4006994 0.53173399
0.64336628 3.4328003 0.56002259
0.74954593 3.4849679 0.55648673
0.78461003 3.5130582 0.59361553
0.86009479 3.5338662 0.56611288
0.94432259 3.5671582 0.54686046
1.0122652 3.5879648 0.51935768
0.97314614 3.6371219 0.5843336
1.0393953 3.6488259 0.53792202
0.99614686 3.7471402 0.59361577
1.060519 3.7415223 0.54906058
1.1207867 3.7752299 0.51935768
0.98631632 3.850137 0.59361565
1.0527288 3.8535416 0.55311102
1.1148304 3.8407736 0.51935768
0.97094291 3.930855 0.58166593
1.0444766 3.9273839 0.53637505
0.59659958 4.1872158 0.59361553
0.68249589 4.1797242 0.57876396
0.77331734 4.159977 0.54816055
0.84682727 4.1300497 0.52326602
0.59750056 4.2153053 0.59361553
0.66807979 4.224668 0.58123922
0.7576052 4.2429962 0.56570303
0.83661133 4.2300191 0.52289379
0.95520115 4.282721 0.56143713
-4.5343475 4.7864666 0.58123922
-4.6369042 4.8567867 0.54309964
-4.5695825 4.8462987 0.59059715
-4.6358614 4.9230604 0.52809387
-4.5620785 4.9284763 0.56783158
-4.4850068 4.9416299 0.59361553
-4.9013581 -3.815079 0.66308206
-4.958766 -3.7525434 0.65580845
-4.9501619 -3.668592 0.65549648
-4.8744025 -3.6124113 0.6554966
-4.814261 -3.5843205 0.64312035
-4.7461286 -3.5629179 0.65372849
-4.6429691 -3.5343816 0.66374755
-4.5466614 -3.5094144 0.65549654
-4.4663205 -3.4906869 0.6554966
-4.3595529 -3.4719615 0.65549672
-4.2614908 -3.4532342 0.65549654
-4.1500664 -3.4345071 0.6554966
-4.0649214 -3.4157798 0.6554966
-3.9497421 -3.3970544 0.6554966
-3.8329616 -3.3783274 0.66787285
-3.7347167 -3.3585608 0.65480912
1.4916019 -2.81653 0.69262552
1.5461724 -2.8318517 0.66712278
1.6051291 -2.8235524 0.61836767
1.4730313 -2.7431843 0.67818671
1.5443611 -2.75879 0.6328066
1.4674553 -2.6479895 0.66787308
1.5185121 -2.6479907 0.61836797
1.4565003 -2.552017 0.66477925
1.5012131 -2.5637212 0.61836791
1.3844818 -2.4107869 0.68437463
1.4379129 -2.4571588 0.6513716
1.2891755 -2.3171539 0.68437463
1.3496923 -2.3518758 0.65240222
1.4141154 -2.3858185 0.61836767
1.1938684 -2.223521 0.68437469
1.248142 -2.2582428 0.6524024
1.3120011 -2.2921853 0.61836767
1.1758306 -2.1497014 0.65711117
1.2104872 -2.1985524 0.61836767
1.1781834 -2.0518603 0.65962219
1.2065827 -2.0206494 0.61836767
1.1867002 -1.9775786 0.68272442
1.2176948 -1.9476157 0.64642054
1.2541113 -1.8521112 0.65549695
1.2887248 -1.781886 0.67406082
1.3340009 -1.740921 0.65085554
1.3804777 -1.6866928 0.66374749
1.4456934 -1.642105 0.65196073
1.5382544 -1.5805753 0.65549654
1.6436219 -1.5243951 0.65549648
1.7434334 -1.4775789 0.6554966
1.8271523 -1.4401259 0.6554966
1.9018614 -1.4120353 0.65549672
1.9548709 -1.3933089 0.65549672
2.0169067 -1.3678195 0.65343398
0.55663478 3.1826372 0.64532059
0.53397942 3.2508867 0.65549642
0.55070835 3.3445189 0.6554966
0.5840857 3.4131825 0.67612368
0.64044863 3.4545388 0.65085548
0.71913695 3.4943318 0.63074398
0.6981132 3.5130582 0.69262552
0.75331533 3.5392766 0.66787285
0.83573437 3.5671582 0.63761979
0.85207033 3.6398234 0.6716814
0.92422348 3.6521695 0.62544
0.85742223 3.7453763 0.67971152
0.93562919 3.7471416 0.63074368
0.8711071 3.8126833 0.67715514
0.92955226 3.845768 0.63404423
0.95039576 3.9143424 0.61836767
0.19595075 4.1872153 0.69262552
0.30887747 4.1872153 0.66787291
0.47611469 4.184094 0.63280672
0.18313646 4.2246685 0.69262534
0.25706941 4.2433953 0.68024921
0.3511647 4.2621217 0.67282349
0.44196928 4.2362618 0.63958418
0.57257265 4.250885 0.61836767
0.73895907 4.2808485 0.61836767
0.80623436 4.2995749 0.61836767
-4.4448977 4.7864656 0.64724576
-4.3949928 4.7779541 0.68587482
-4.5253372 4.8520083 0.6282686
-4.4526563 4.8520098 0.67494559
-4.447629 4.9244876 0.64128679
-4.3883839 4.9175525 0.69262552
-4.904213 -3.8090386 0.75450677
-4.8765607 -3.8341868 0.75556755
-4.949142 -3.7528586 0.75450611
-4.9362979 -3.6763928 0.74831831
-4.8576298 -3.6273925 0.75698185
-4.7860298 -3.6030469 0.77925897
-4.7401772 -3.5780776 0.74625593
-4.6575866 -3.5531087 0.7627576
-4.5445604 -3.5187767 0.75450677
-4.4407935 -3.4906869 0.75450677
-4.3565483 -3.4719615 0.75450671
-4.2751579 -3.4532342 0.75450677
-4.1503448 -3.4264815 0.75981092
-4.0928535 -3.4157808 0.71737814
-4.0135646 -3.3970542 0.77925909
-3.9507928 -3.3876905 0.75450677
-3.8446245 -3.3689637 0.75450677
-3.7340262 -3.3478966 0.74909222
-3.6393445 -3.3221478 0.77813387
-3.5318246 -3.3034215 0.79163504
1.3553697 -2.8315113 0.78173453
1.4337248 -2.8434501 0.74161482
1.3562834 -2.7509878 0.76688242
1.412113 -2.7509868 0.71737844
1.3659018 -2.6479897 0.76688242
1.4111116 -2.6479905 0.71737844
1.369025 -2.5543585 0.7668826
1.4200017 -2.5543578 0.71737844
1.2939808 -2.4045448 0.79163504
1.3474408 -2.4500241 0.75627393
1.4057057 -2.4888148 0.71737814
1.1942691 -2.3109117 0.79163504
1.2553663 -2.3430142 0.7615785
1.3156049 -2.3708372 0.72727913
1.1655651 -2.2440319 0.76334661
1.214692 -2.279701 0.7338798
1.1337514 -2.1517372 0.75450635
1.146335 -2.0487397 0.75450605
1.1677489 -1.9551066 0.75450623
1.1884007 -1.8715574 0.76688254
1.2233745 -1.8291289 0.73988032
1.2676011 -1.7662801 0.7606945
1.3192837 -1.7233655 0.7452246
1.3644395 -1.6779535 0.75945717
1.439644 -1.633009 0.74955618
1.4876976 -1.5993009 0.75450671
1.5600281 -1.5618483 0.75450641
1.6579884 -1.5150318 0.75450671
1.7435846 -1.4775786 0.75450659
1.8336844 -1.4401258 0.75450671
1.9134244 -1.4120353 0.75450677
1.9523665 -1.3880655 0.74213058
0.57265848 3.2758546 0.73977327
0.60621065 3.2368405 0.73346722
0.55598813 3.3451538 0.7538771
0.56202775 3.4360702 0.7613818
0.62062651 3.4818468 0.73387986
0.66031718 3.5433099 0.76878691
0.72522944 3.5638883 0.7279864
0.68754137 3.6441445 0.79163533
0.74869007 3.6441438 0.7421307
0.69557709 3.7086475 0.79163504
0.7583974 3.7312737 0.73869246
0.14189029 4.1872153 0.71737814
-0.25167912 4.2647972 0.79163516
-0.12877288 4.2771034 0.77183342
-0.02399548 4.2605619 0.75450659
0.058175325 4.2384672 0.74213028
0.12425236 4.2485018 0.71737844
-4.3468456 4.7864656 0.74403453
-4.275887 4.781116 0.784563
-4.4103079 4.8520098 0.71737838
-4.3551574 4.8473282 0.75605363
-4.283267 4.8707361 0.78544706
-4.3505411 4.9175525 0.71737814
-4.2487578 4.9250426 0.75079376
-4.1769471 4.9237947 0.79163504
-4.856307 -3.8236377 0.8528868
-4.9187779 -3.7486982 0.82738876
-4.8798423 -3.7562647 0.87489277
-4.9151735 -3.6966798 0.81638765
-4.8525224 -3.6661026 0.84928656
-4.7544231 -3.6142037 0.86220556
-4.7085428 -3.5843205 0.82876396
-4.6497512 -3.5655928 0.85351622
-4.5542712 -3.5343819 0.86176705
-4.4823904 -3.5094144 0.85351634
-4.4194684 -3.4906869 0.85351628
-4.3547468 -3.4719615 0.85351628
-4.2448993 -3.443871 0.85351622
-4.1382036 -3.4157798 0.85351646
-4.0523062 -3.3970544 0.85351634
-3.9465294 -3.3745821 0.86094201
-3.8447752 -3.3521104 0.85599154
-3.745183 -3.329639 0.8510412
-3.6533606 -3.3096633 0.8576417
-3.5654621 -3.3034215 0.82876396
-3.5578542 -3.2826138 0.86176711
1.0957586 -2.8516426 0.89064503
1.1574779 -2.8305755 0.8720805
1.2602928 -2.8383775 0.83495218
1.3286196 -2.8602252 0.81638765
1.1641155 -2.7584774 0.88074368
1.2544649 -2.7456367 0.83406812
1.2583264 -2.6506646 0.86766064
1.313603 -2.641748 0.82051295
1.2654219 -2.5509539 0.87489313
1.3132688 -2.5585186 0.82738882
1.192467 -2.4045448 0.89064503
1.2501622 -2.4494901 0.85722923
1.306595 -2.4794512 0.81638747
1.162176 -2.3376634 0.86235648
1.2207987 -2.3733337 0.83288926
1.0791403 -2.2443283 0.87689322
1.1275398 -2.2632444 0.83438933
1.0699298 -2.1477237 0.85882038
1.1115764 -2.1798258 0.81638747
1.0853331 -2.0514143 0.86766028
1.112978 -2.0424979 0.82051289
1.094798 -1.970088 0.88569438
1.1225885 -1.9501132 0.84279048
1.1566776 -1.852111 0.85351664
1.1909653 -1.7865676 0.87826872
1.2510659 -1.7449515 0.85076666
1.3490573 -1.6713263 0.85637224
1.430505 -1.6260532 0.84821224
1.4803398 -1.5993009 0.85351634
1.5550724 -1.5618484 0.85351598
1.6623437 -1.5150318 0.8535161
1.7506421 -1.4775786 0.85351628
1.8605307 -1.4368844 0.85161215
1.924687 -1.4120355 0.81638765
1.9246871 -1.393309 0.81638765
0.580347 3.3632457 0.827703
0.55264568 3.4497001 0.84650344
0.56120622 3.523623 0.85446835
0.61647779 3.5635769 0.82905167
0.65362257 3.6356316 0.82707614
0.69150591 3.7003241 0.81638765
-0.2533524 4.2674723 0.81638771
-4.2346115 4.7864661 0.81638765
-4.1394677 4.7779551 0.86289227
-4.0580139 4.7490129 0.89064503
-4.2539005 4.8384833 0.82738876
-4.1571255 4.8573604 0.86766046
-4.0832424 4.8988261 0.89064503
-4.1373024 4.9175525 0.81638765
-4.0591936 4.9242401 0.8579365
-3.945087 4.9409609 0.89064503
-4.8110323 -3.8137209 0.92467988
-4.7442536 -3.81653 0.97109073
-4.8313193 -3.7528596 0.92777431
-4.7797227 -3.7528596 0.97727919
-4.812058 -3.6904368 0.92364854
-4.749577 -3.6603978 0.95252657
-4.6714835 -3.6095612 0.9530645
-4.6335783 -3.5805745 0.94510078
-4.5503407 -3.551548 0.95252675
-4.4593501 -3.5174394 0.95783061
-4.4003978 -3.4906871 0.91539764
-4.3501973 -3.4799867 0.95783073
-4.2420449 -3.4438705 0.95252645
-4.1568236 -3.4157798 0.95252633
-4.0610185 -3.389029 0.95783073
-3.946769 -3.3633471 0.94510072
-3.8552263 -3.3371289 0.95995224
-3.7569771 -3.3127851 0.95252633
-3.6892009 -3.3034215 0.91539764
-3.642148 -3.2846944 0.9649027
-3.5744722 -3.2706494 0.95046365
-3.48317 -3.2438369 0.98290443
0.9449898 -2.9148445 0.9814043
0.95262831 -2.8553698 0.96734768
1.0506334 -2.8428643 0.92003882
0.96481216 -2.7837579 0.9834668
1.054055 -2.7523248 0.95606297
1.1292963 -2.7260184 0.92364866
1.0879499 -2.6667173 0.98965478
1.1508924 -2.6479893 0.95252663
1.2106872 -2.6292641 0.91539764
1.1605916 -2.5543582 0.96490312
1.2277865 -2.5543575 0.9153977
1.0915539 -2.4232712 0.98965478
1.153455 -2.4518547 0.95057219
1.2074841 -2.4888148 0.91539764
1.0643946 -2.3416767 0.96490264
1.1252916 -2.3639708 0.92364872
0.9876374 -2.2360053 0.98965478
1.0374581 -2.2580378 0.94597459
0.99150872 -2.1423728 0.98140436
1.0169905 -2.1573539 0.93519986
0.99564672 -2.0799508 0.98140419
1.0394018 -2.0432317 0.94743031
1.0680681 -1.9551064 0.95252645
1.0917544 -1.8864419 0.97315353
1.1281615 -1.8406671 0.94565105
1.1777506 -1.777204 0.95252657
1.2387189 -1.7303877 0.95252663
1.2965838 -1.6929342 0.9649027
1.3587605 -1.6583624 0.94967043
1.4345381 -1.618028 0.95252645
1.4684758 -1.5993009 0.95252645
1.5341744 -1.5712113 0.95252675
1.6473265 -1.5243952 0.95252675
1.7552972 -1.483197 0.94510067
1.8282505 -1.4548396 0.95134801
-4.0536156 4.7812228 0.93618983
-3.9859331 4.7771025 0.98346698
-4.1194324 4.8332825 0.91539764
-4.047379 4.8492546 0.95616627
-3.9903383 4.8925838 0.98140413
-4.01056 4.9175525 0.91539764
-3.9362588 4.9313941 0.95414078
-3.8904259 4.9550056 0.98965502
-4.7259617 -3.8090389 1.0144076
-4.7235398 -3.7515678 1.0263574
-4.6384397 -3.7462502 1.0755603
-4.5709887 -3.7903125 1.088665
-4.7205553 -3.6873164 1.0144079
-4.6516261 -3.6653006 1.0478568
-4.5876875 -3.6355062 1.0779387
-4.5492783 -3.5736189 1.025016
-4.4474587 -3.5365467 1.0416857
-4.3748679 -3.514096 1.0701005
-4.3279572 -3.4869418 1.0441107
-4.2473598 -3.4553134 1.0501611
-4.1535211 -3.4220221 1.0597872
-4.0548596 -3.3876903 1.0515363
-3.9378786 -3.3515763 1.0568402
-3.8507805 -3.3258939 1.0441105
-3.7743459 -3.3034215 1.0515362
-3.7082214 -3.2846944 1.0639124
-3.6399467 -3.2706497 1.0515363
-3.5434773 -3.2509861 1.0441107
-3.4831698 -3.2240207 1.0639123
0.46120787 -2.9226475 1.0837146
0.85669088 -2.9120352 1.0243086
0.90294266 -2.9288898 1.0144076
0.47676533 -2.8820729 1.088665
0.56519312 -2.8513079 1.0798247
0.6119169 -2.8446198 1.0639124
0.76922041 -2.8526919 1.0442809
0.86590105 -2.8477404 1.0185333
0.76338631 -2.7915606 1.0804142
0.86957794 -2.7586486 1.0616627
0.948744 -2.7346015 1.0360661
1.0113642 -2.7135334 1.0144079
0.96266657 -2.6560156 1.0815926
1.0404505 -2.6436684 1.035352
0.9974885 -2.5543575 1.088665
1.0622402 -2.5543578 1.0391594
0.98240298 -2.4446731 1.0851289
1.0488358 -2.4541156 1.0377035
0.96060735 -2.3456895 1.0656812
1.018472 -2.3546078 1.0185333
0.94330806 -2.2547328 1.0515364
0.89833748 -2.1798258 1.088665
0.94593269 -2.1477237 1.0462322
0.97402287 -2.0518601 1.0556614
1.005958 -2.0206494 1.0144079
0.99319398 -1.9785154 1.0824769
1.026944 -1.9492544 1.0438014
1.069152 -1.8680832 1.0537207
1.1158386 -1.8133197 1.0462321
1.1702423 -1.7678407 1.0515362
1.2420977 -1.7210248 1.0515361
1.289776 -1.6929345 1.0515363
1.360655 -1.6554813 1.0515362
1.4274801 -1.618028 1.0515363
1.4732816 -1.5993009 1.0515363
1.540632 -1.5712113 1.0515361
1.6324599 -1.5337585 1.0515364
1.7233118 -1.5056685 1.0515363
1.7708716 -1.4822605 1.0480001
1.8165662 -1.4611927 1.0144076
-3.9401622 4.7827206 1.0243086
-3.8814168 4.7784405 1.0709845
-3.9444072 4.8540459 1.0499219
-3.8934295 4.8051929 1.088665
-3.9136522 4.9175515 1.03916
-3.8773923 4.9362788 1.0498861
-4.5440516 -3.745868 1.1365201
-4.4707365 -3.7378781 1.1876754
-4.5396461 -3.6677396 1.1314193
-4.4576349 -3.6355724 1.1681337
-4.4302406 -3.579392 1.1433809
-4.3521771 -3.541981 1.1518019
-4.2786608 -3.5156567 1.1794243
-4.2407908 -3.4826612 1.1452421
-4.153121 -3.4449108 1.1464208
-4.0745325 -3.4204617 1.1691107
-4.0236559 -3.3933091 1.1431203
-3.9467392 -3.3642831 1.1505458
-3.850009 -3.3301733 1.1558504
-3.7719431 -3.3034215 1.1505461
-3.7122264 -3.2846944 1.1381698
-3.6508784 -3.2697134 1.1579721
-3.5372295 -3.2378776 1.1505461
-3.4396217 -3.2097883 1.1505461
-3.366195 -3.1878057 1.1575415
0.37338972 -3.0137835 1.1810745
0.29806519 -2.9101627 1.187675
0.35802171 -2.9453106 1.1674922
0.41990176 -2.9470956 1.1237311
0.26839218 -2.8539834 1.1876754
0.3352319 -2.8610055 1.1536398
0.43270171 -2.8459578 1.1204894
0.35572982 -2.7915606 1.1794243
0.4426271 -2.7790763 1.1629225
0.53905517 -2.7603502 1.1579719
0.64969909 -2.7416236 1.1530213
0.75757998 -2.7291393 1.1340443
0.83266413 -2.7135334 1.113417
0.69390869 -2.6854436 1.187675
0.76288569 -2.6511114 1.1794243
0.84888232 -2.6521511 1.1409199
0.92606878 -2.6245828 1.1196051
0.85200596 -2.5543575 1.1752988
0.94000441 -2.5543575 1.1257937
0.85999441 -2.4513617 1.1752993
0.93112427 -2.4513617 1.1257933
0.85507667 -2.3460243 1.1598284
0.91750884 -2.357729 1.1134169
0.85332745 -2.2547321 1.1505464
0.86661506 -2.1537716 1.1521606
0.90654677 -2.1049194 1.1134171
0.88882697 -2.0721483 1.1814871
0.92798305 -2.0428877 1.1428111
0.97230464 -1.957078 1.1525007
1.0080605 -1.9176533 1.1134171
0.99244308 -1.898927 1.187675
1.0490011 -1.8595034 1.1485924
1.1121271 -1.805294 1.1505461
1.1603816 -1.7678406 1.1505463
1.237968 -1.7210244 1.1505461
1.2891752 -1.6929345 1.1505461
1.3564503 -1.6554816 1.1505466
1.4373916 -1.618028 1.1505461
1.4827422 -1.5993009 1.1505461
1.5551989 -1.5712112 1.1505458
1.6611648 -1.5305173 1.1486422
1.7408812 -1.5056685 1.1134171
1.7408813 -1.4869418 1.1134171
-3.834924 4.7827206 1.1233182
-3.7727799 4.7784405 1.1699946
-3.8507273 4.855412 1.1471708
-3.7922158 4.8145556 1.1876752
-3.8406038 4.9206729 1.1340442
-3.7901139 4.9237947 1.1794242
-4.4294553 -3.7317915 1.2124274
-4.3689637 -3.7263296 1.2474931
-4.2752566 -3.7216485 1.286685
-4.4214201 -3.6685896 1.2124274
-4.3494449 -3.6504157 1.2517401
-4.2820649 -3.6217732 1.2866853
-4.3297181 -3.578078 1.2206782
-4.2479658 -3.5468664 1.2467005
-4.1710901 -3.5234592 1.2804971
-4.1435647 -3.4786189 1.2382802
-4.0412636 -3.4362748 1.2474546
-3.9754207 -3.4157805 1.2743087
-3.9463887 -3.3908122 1.2413051
-3.8541181 -3.3575213 1.2509315
-3.7518966 -3.3174672 1.2495563
-3.6886001 -3.3034215 1.286685
-3.6419191 -3.2766681 1.2442523
-3.5491438 -3.2472405 1.2495564
-3.453836 -3.2191517 1.2495562
-3.3996761 -3.2097888 1.286685
-3.3521893 -3.1851766 1.2421304
-3.2436514 -3.1629725 1.274309
-3.1804905 -3.1423728 1.2545065
-3.0374706 -3.1161554 1.286685
0.2960448 -3.0089033 1.2754339
0.33654106 -3.0293317 1.2403301
0.27476105 -2.9362037 1.243755
0.30647469 -2.9663427 1.2124274
0.091433764 -2.8258934 1.286685
0.15942711 -2.8558102 1.2721958
0.22887872 -2.857388 1.2281789
0.16631763 -2.7915606 1.2784342
0.25401598 -2.7790768 1.2495559
0.34865519 -2.7416241 1.2536817
0.45183751 -2.7191517 1.2322295
0.55034781 -2.7041702 1.2124276
0.46114787 -2.6713989 1.2804971
0.54348296 -2.6479905 1.2619324
0.64757091 -2.6426396 1.2301078
0.72364187 -2.6199002 1.2124275
0.58038151 -2.5824473 1.286685
0.66233987 -2.5522771 1.2674332
0.747168 -2.5501964 1.2234285
0.66662097 -2.4580495 1.2831495
0.74765122 -2.4486077 1.2357243
0.68057352 -2.3483651 1.2866856
0.74524629 -2.3483646 1.2371804
0.68237573 -2.2547326 1.2866856
0.747729 -2.2547324 1.2371805
0.69751263 -2.1985524 1.286685
0.75818038 -2.1577952 1.2575645
0.81994969 -2.1267674 1.2206783
0.78280807 -2.0861931 1.286685
0.85141802 -2.048739 1.2495561
0.90594596 -2.0112863 1.2124276
0.88131851 -1.9863175 1.2784344
0.93580312 -1.9495989 1.2444593
0.98113042 -1.8926843 1.2578071
1.0537447 -1.8385861 1.2468061
1.1577286 -1.7678406 1.2495561
1.2327871 -1.7210245 1.2495563
1.2848206 -1.6929345 1.2495561
1.3545485 -1.6554813 1.2495559
1.4453501 -1.618028 1.2495562
1.4922025 -1.599301 1.2371799
1.5410022 -1.5844488 1.2559577
1.6398343 -1.5524846 1.238555
-3.7298064 4.7827206 1.2223285
-3.6794181 4.7784405 1.2690047
-3.7513914 4.8516545 1.2460603
-3.6971188 4.8477535 1.286685
-3.7264423 4.9175525 1.2272789
-3.6994116 4.9269161 1.2557442
-4.2496281 -3.7154062 1.3114371
-4.1463137 -3.721648 1.3526914
-4.0802383 -3.7341325 1.3856945
-4.2394657 -3.6498642 1.3238131
-4.1671858 -3.6498635 1.3733181
-4.2123871 -3.5843205 1.3114371
-4.1450615 -3.5546689 1.3382518
-4.0722651 -3.5290763 1.3726997
-4.0452213 -3.4775281 1.3355204
-3.9487419 -3.4395864 1.3504541
-3.8706043 -3.4157805 1.3733182
-3.8413417 -3.3863533 1.3361896
-3.7494018 -3.3533599 1.3499411
-3.6600258 -3.3167982 1.3538703
-3.5984988 -3.3034215 1.3856945
-3.6096115 -3.2846944 1.3238134
-3.5441377 -3.2690885 1.3444405
-3.4432247 -3.2402182 1.3578482
-3.3595815 -3.2097883 1.3485659
-3.31408 -3.1910617 1.3238133
-3.2484789 -3.1750104 1.3503342
-3.1553018 -3.1442454 1.3485659
-3.0577743 -3.1199009 1.3559917
-2.9498689 -3.0913875 1.3585469
-2.84045 -3.0599754 1.3856945
-0.73869634 -3.0225227 1.3856945
-0.66211009 -3.0084774 1.3795063
-0.57831597 -3.0037959 1.3609419
-0.40292001 -3.0037961 1.3361897
-0.57831597 -2.985069 1.3856945
-0.44947207 -2.956979 1.3733186
-0.34656459 -2.9434958 1.3436154
-0.29239631 -2.916405 1.3251885
-0.3110168 -2.8914361 1.3856945
-0.26554611 -2.8745825 1.3658926
-0.14748383 -2.8352566 1.3733182
-0.059826549 -2.8284469 1.3429403
0.021720424 -2.8341548 1.3114374
0.1288256 -2.8773911 1.3114371
-0.04281652 -2.7978036 1.3733182
0.062701665 -2.7821975 1.3526914
0.15330312 -2.7572293 1.3444407
0.25155604 -2.7228973 1.3538702
0.32449484 -2.7104123 1.319688
0.28364921 -2.6854436 1.3856945
0.35166383 -2.6523113 1.3590382
0.44272712 -2.632385 1.3196877
0.37975678 -2.5824473 1.3856945
0.45216507 -2.5543573 1.3609424
0.54296821 -2.5463316 1.3185089
0.47723731 -2.4687505 1.3786228
0.54783595 -2.4402955 1.3496908
0.61862439 -2.4513609 1.3114369
0.54539216 -2.343683 1.3671309
0.62393004 -2.3553874 1.320719
0.57191187 -2.2622228 1.3708436
0.6376856 -2.2472415 1.3262889
0.58698893 -2.1985524 1.3856945
0.65946984 -2.1579783 1.3540672
0.72346175 -2.1199007 1.3213379
0.69991517 -2.0861931 1.3856945
0.75682926 -2.0612233 1.3526913
0.81747568 -2.021987 1.3361895
0.86225706 -1.9663423 1.3510417
0.9175992 -1.9213984 1.3411402
0.95910585 -1.8839459 1.3535168
1.0528537 -1.8293716 1.3450301
1.1489178 -1.7678407 1.3485655
1.2271559 -1.7210244 1.3485659
1.2750597 -1.6929345 1.3485659
1.3407581 -1.6648445 1.3485663
1.4420146 -1.6275902 1.3477756
1.4723805 -1.5993015 1.3715502
1.5132262 -1.5920186 1.3224384
-3.6236072 4.7827206 1.3213383
-3.5737858 4.7784405 1.3680141
-3.6542552 4.8512878 1.3455204
-3.591728 4.8477535 1.3856945
-3.6315358 4.917552 1.3114371
-3.5864856 4.9175525 1.3757935
-4.0510621 -3.7198646 1.429306
-3.9679132 -3.7154062 1.4847045
-4.1135426 -3.6529839 1.4186975
-4.056613 -3.6479921 1.4649026
-4.0410891 -3.5580013 1.4348646
-3.9800014 -3.5445263 1.4754226
-3.9515047 -3.4739325 1.4143553
-3.8428106 -3.4402199 1.4494635
-3.7738957 -3.4157805 1.4723285
-3.7443776 -3.3863533 1.4351993
-3.65276 -3.3533595 1.4489509
-3.5628021 -3.3167975 1.4528803
-3.4891765 -3.3034215 1.4847045
-3.5186098 -3.2846944 1.4104471
-3.4459283 -3.2706497 1.4475758
-3.3495941 -3.233196 1.4475758
-3.2781401 -3.209789 1.4599524
-3.2281835 -3.1848197 1.439325
-3.1552024 -3.1598508 1.4558269
-3.0564661 -3.1255195 1.4475756
-2.9633472 -3.0936832 1.4401501
-2.873265 -3.0688462 1.4566953
-2.7667172 -3.036567 1.4723288
-0.83900845 -3.0112865 1.4302492
-0.73869634 -3.0037961 1.4104471
-0.74321866 -2.9795613 1.4599524
-0.66376215 -2.9663427 1.447576
-0.55799377 -2.9382524 1.455827
-0.46623096 -2.9251447 1.4302492
-0.39691329 -2.9101627 1.4104471
-0.44536749 -2.8851943 1.4764539
-0.35383615 -2.8673592 1.4528799
-0.2586832 -2.8399382 1.4382937
-0.16595459 -2.81653 1.4228234
-0.20950294 -2.7978034 1.4847045
-0.13850378 -2.7828221 1.4649028
-0.058033627 -2.7697136 1.4393251
0.043079693 -2.7322605 1.4558268
0.13107815 -2.7191517 1.4302491
0.20676303 -2.7041702 1.4104471
0.15780814 -2.6635959 1.4764534
0.24405934 -2.6445847 1.4419501
0.30707535 -2.6292641 1.4104468
0.26456103 -2.5585198 1.473703
0.34202358 -2.5509536 1.4261984
0.2827481 -2.4888148 1.4847047
0.34750515 -2.4520817 1.4618562
0.42600843 -2.4419978 1.4186972
0.37543201 -2.3483653 1.4847044
0.44086504 -2.3483646 1.4351991
0.46089038 -2.2574074 1.4617201
0.52441883 -2.2484894 1.4145721
0.49028063 -2.1985524 1.4847045
0.55956984 -2.1610999 1.4526712
0.62863529 -2.117404 1.4269487
0.66237342 -2.0674655 1.459952
0.74160188 -2.0300131 1.4351993
0.77896398 -1.9850694 1.4649029
0.84523809 -1.94512 1.4417996
0.89153004 -1.8989271 1.4723285
0.94815713 -1.8733907 1.4464502
1.0446466 -1.8223188 1.4442
1.1463438 -1.7624896 1.4511119
1.2273061 -1.7179037 1.4393247
1.2765616 -1.6929345 1.447576
1.3574516 -1.661377 1.4498675
1.4285315 -1.6294723 1.4214482
-3.5376859 4.7827215 1.4381698
-3.6099119 4.8520107 1.4104471
-3.5791132 4.8477535 1.450951
-3.9294696 -3.7154062 1.5218334
-3.8492801 -3.7154062 1.5713384
-4.0111628 -3.6405003 1.5094569
-3.9486251 -3.6498642 1.5548362
-3.8724055 -3.6966798 1.5837145
-3.937609 -3.5681756 1.5393311
-3.8793035 -3.528744 1.5621558
-3.8373458 -3.479352 1.5361637
-3.7542372 -3.4430199 1.549962
-3.6714809 -3.4157805 1.5713384
-3.7012143 -3.3970544 1.5094571
-3.6323936 -3.383678 1.5412819
-3.5459404 -3.3502386 1.5465863
-3.4586921 -3.3151255 1.555868
-3.4255054 -3.2846944 1.5218334
-3.3538756 -3.2659662 1.546586
-3.2523775 -3.226434 1.5479618
-3.1792295 -3.2097888 1.5837145
-3.137558 -3.1793573 1.5373039
-3.0494084 -3.1442449 1.5465859
-2.9742503 -3.1208367 1.5651501
-2.9377587 -3.0974286 1.5342096
-2.8658781 -3.0724611 1.5507112
-2.7608612 -3.041249 1.5465859
-2.6574647 -3.0143015 1.5523212
-2.5874333 -2.985069 1.5699632
-2.4962642 -2.9663424 1.5837145
-0.82999814 -2.9372127 1.5754639
-0.75255752 -2.9322503 1.5437299
-0.65069759 -2.9195266 1.5218334
-0.5909307 -2.9101627 1.5094571
-0.70205522 -2.8914361 1.5837145
-0.63357848 -2.8820729 1.5713384
-0.53240776 -2.8673594 1.5518899
-0.43956071 -2.8406072 1.5412819
-0.34185138 -2.8227718 1.5177078
-0.41553378 -2.7978034 1.5837145
-0.33143985 -2.7828219 1.5639129
-0.24036279 -2.7603507 1.5465864
-0.15115218 -2.7282476 1.5412819
-0.063539863 -2.7135334 1.5218333
0.007339716 -2.7041702 1.5094571
-0.13141584 -2.6760805 1.5837145
-0.04111461 -2.654232 1.5672128
0.055768847 -2.6479902 1.5373043
0.13318062 -2.6245828 1.5156453
0.069309033 -2.5606 1.5795885
0.15461366 -2.5560603 1.53871
0.22518365 -2.5356305 1.5094569
0.15563062 -2.4677472 1.5744328
0.24088116 -2.445744 1.5342096
0.30887747 -2.4045448 1.5094571
0.26731083 -2.3558555 1.568864
0.32371387 -2.3408742 1.5243093
0.3505865 -2.2605844 1.5543215
0.41789931 -2.2313232 1.5156453
0.37975669 -2.1985524 1.5837145
0.44966581 -2.1697423 1.5532502
0.52698189 -2.1236467 1.5342104
0.56896859 -2.0737083 1.5672131
0.64728731 -2.0400968 1.5399222
0.71793556 -2.0112863 1.5094571
0.7504645 -1.9709522 1.5494426
0.8241688 -1.9256788 1.5412819
0.87801486 -1.8926846 1.5548368
0.95327896 -1.8577291 1.5416362
1.0361419 -1.8146579 1.5465863
1.0858476 -1.7865676 1.5465859
1.1594489 -1.7508693 1.5419444
1.239204 -1.713822 1.5494419
1.2897762 -1.6929343 1.5218334
1.3325355 -1.6750791 1.5480249
-3.5077977 4.7864661 1.5094571
-3.4639475 4.7823048 1.5520865
-3.5300472 4.8511267 1.5374796
-3.488476 4.8520088 1.5754637
-3.4833949 4.9175525 1.5620563
-3.8261545 -3.7154062 1.6084666
-3.9058435 -3.6217732 1.608467
-3.8556316 -3.6468616 1.6472306
-3.789813 -3.6873159 1.6765363
-3.8401806 -3.5647016 1.6520784
-3.7683804 -3.5145214 1.6669726
-3.7375283 -3.4784741 1.6369863
-3.6479955 -3.4401259 1.6480706
-3.5660629 -3.4157805 1.6703484
-3.5391822 -3.3853498 1.6363134
-3.451334 -3.346494 1.6480707
-3.3606331 -3.309664 1.6538461
-3.3321009 -3.2846944 1.6208428
-3.2491488 -3.2603488 1.6431203
-3.1532295 -3.2231643 1.6508998
-3.0975378 -3.2097888 1.6827244
-3.1185615 -3.1910617 1.6084669
-3.0428097 -3.1744153 1.6442201
-2.9494715 -3.134882 1.6455958
-2.8764904 -3.1161554 1.6703482
-2.8426528 -3.0911863 1.6373448
-2.7580078 -3.0599766 1.6455953
-2.6521988 -3.0187778 1.6505461
-2.5639906 -2.985069 1.6455954
-2.4717567 -2.9599216 1.6509
-2.3755295 -2.9288895 1.6827245
-0.92370307 -2.9128382 1.6367553
-0.85442573 -2.9164047 1.6084669
-0.93320483 -2.8829238 1.6714733
-0.84501505 -2.8633468 1.6641598
-0.74049813 -2.8566585 1.6402916
-0.65279961 -2.8352568 1.6332194
-0.55789346 -2.8227725 1.6167177
-0.70385718 -2.7978034 1.6827244
-0.62667072 -2.7884402 1.6703484
-0.54968429 -2.7603505 1.6662225
-0.45698032 -2.7550001 1.6402917
-0.35746908 -2.7291393 1.6290942
-0.26326346 -2.7135334 1.608467
-0.43175244 -2.6854436 1.6827244
-0.3402096 -2.6592264 1.6728232
-0.25267655 -2.6479897 1.6455959
-0.15604332 -2.636755 1.6183683
-0.075553417 -2.6105375 1.6084669
-0.23968701 -2.5777664 1.676536
-0.15043715 -2.5512364 1.6620969
-0.045970082 -2.5520172 1.6270308
0.03917551 -2.526268 1.608467
-0.119102 -2.4888144 1.6827242
-0.038311481 -2.4630654 1.6641598
0.050512969 -2.4560432 1.6332196
0.13468228 -2.4170291 1.6249689
0.15786824 -2.3783281 1.6629221
0.23647629 -2.3383765 1.6398195
0.28077438 -2.2654331 1.654436
0.32449472 -2.2297628 1.6249686
0.36019194 -2.1718011 1.6544362
0.44024447 -2.1236467 1.6332192
0.47546393 -2.0799508 1.6744734
0.55210376 -2.0516202 1.6446435
0.63218963 -2.0159683 1.6270311
0.66301686 -1.984534 1.6508996
0.74271327 -1.9410616 1.6455953
0.80263042 -1.9176533 1.6084669
0.85362077 -1.8864425 1.6497211
0.95261836 -1.8427476 1.6455957
1.0245192 -1.8090394 1.6381698
1.0772882 -1.7865676 1.6455956
1.141328 -1.7593288 1.6484087
1.2624551 -1.7207226 1.6555765
1.2903767 -1.6929343 1.6438276
1.3029908 -1.6859118 1.6084669
-3.4249971 4.7864656 1.6484518
-3.4683478 4.8499737 1.6446996
-3.4723575 4.9175525 1.6208429
-3.8255534 -3.6217732 1.7074775
-3.7647121 -3.640903 1.7484655
-3.6633716 -3.6779532 1.7817345
-3.8129394 -3.5843205 1.7074773
-3.7431867 -3.5503764 1.7415117
-3.6689789 -3.5156567 1.7734835
-3.6380098 -3.4761214 1.7349793
-3.5484035 -3.4363804 1.7495561
-3.4789653 -3.4157808 1.7817345
-3.5023913 -3.3970544 1.7074773
-3.4387941 -3.3806682 1.7384176
-3.3489525 -3.3450377 1.7487316
-3.2666276 -3.3096638 1.7528563
-3.2188737 -3.2800121 1.7260416
-3.1464596 -3.2534831 1.7432305
-3.0663025 -3.2222722 1.7528563
-2.9966247 -3.2097888 1.7817345
-3.0137441 -3.1910617 1.7198533
-2.9453671 -3.170254 1.7459805
-2.8565936 -3.1302004 1.7446059
-2.7779803 -3.1161554 1.7817345
-2.8026073 -3.097429 1.7074773
-2.7388024 -3.0807841 1.7432299
-2.6545844 -3.0439246 1.7463742
-2.5634542 -3.0118225 1.7499098
-2.5277998 -2.985069 1.7198533
-2.4536169 -2.9663417 1.7446058
-2.3770306 -2.9476163 1.769358
-2.2536135 -2.925015 1.7535678
-2.1851158 -2.9101627 1.742543
-2.1178405 -2.8914359 1.7679831
-2.0511658 -2.8727095 1.7817345
-1.8337224 -2.8539832 1.7817345
-1.7256016 -2.8352566 1.7817345
-1.6030643 -2.8165298 1.7817345
-0.94112277 -2.8586648 1.7074771
-0.87288618 -2.8240211 1.7140779
-1.5147651 -2.7978034 1.7817345
-1.4192579 -2.7790766 1.7817345
-1.3255532 -2.7509868 1.7817345
-1.2438614 -2.7228971 1.7817345
-1.187999 -2.7041702 1.7817345
-0.84801841 -2.7978034 1.7322292
-0.76602662 -2.7821972 1.715728
-0.65520245 -2.7389479 1.7180854
-0.58312178 -2.7135334 1.7074775
-1.102103 -2.6854436 1.7817345
-1.0411347 -2.6573539 1.7817345
-0.97355914 -2.6292639 1.7817345
-0.77293468 -2.6105373 1.7817345
-0.61600846 -2.6498635 1.7507935
-0.55564135 -2.6573544 1.7260413
-0.47439995 -2.6417487 1.715728
-0.37709093 -2.6199005 1.7074775
-0.64138699 -2.5690713 1.7817346
-0.5496344 -2.5543575 1.769358
-0.45022273 -2.5496757 1.7507935
-0.35526657 -2.5574791 1.7239789
-0.2825852 -2.5356305 1.7074775
-0.42874885 -2.4888148 1.7817345
-0.33852774 -2.4757056 1.7619325
-0.24894744 -2.4607246 1.744606
-0.15837078 -2.4349749 1.7353234
-0.0463202 -2.4107869 1.715728
-0.11159348 -2.3858185 1.7817345
-0.055731058 -2.3858185 1.7569818
0.053291082 -2.3764553 1.7446058
0.1585452 -2.3585801 1.7412304
0.24508367 -2.3258295 1.7389419
0.25295475 -2.2547326 1.7446042
0.27854338 -2.1798263 1.7569818
0.34075916 -2.1337299 1.7379419
0.40017962 -2.1049194 1.7074773
0.37675333 -2.0861931 1.769358
0.4423469 -2.0618482 1.7470809
0.53443009 -2.0229907 1.7353239
0.57827926 -1.9878786 1.76317
0.64843768 -1.9607247 1.7421304
0.7224406 -1.9238954 1.7363548
0.7721464 -1.8989267 1.744606
0.84738058 -1.870837 1.7446058
0.95445037 -1.8333843 1.7446058
1.032688 -1.805294 1.7446058
1.080742 -1.7865674 1.7322295
1.1465975 -1.7678412 1.7419807
1.2610296 -1.7357379 1.7275147
-3.3575263 4.7800469 1.7456663
-3.427808 4.8514872 1.7379589
-3.388864 4.8114343 1.7734835
-3.6603281 -3.6293497 1.8409728
-3.6542013 -3.5488362 1.8416604
-3.58108 -3.5094142 1.880744
-3.5458803 -3.4757054 1.8386649
-3.4600444 -3.4345083 1.8436149
-3.3876624 -3.4157805 1.8683679
-3.4098878 -3.3970544 1.8064871
-3.3350711 -3.3804085 1.8422402
-3.2402315 -3.336714 1.8394903
-3.1705799 -3.3109119 1.8609421
-3.1323774 -3.2800121 1.8250515
-3.0494835 -3.2528574 1.8460906
-2.9659905 -3.2160304 1.8518664
-2.9290493 -3.1910617 1.8188633
-2.8576508 -3.1655252 1.8447406
-2.7633917 -3.1241813 1.8489196
-2.7195146 -3.0974286 1.8312393
-2.6467004 -3.0703804 1.8394903
-2.5502651 -3.0281408 1.8460907
-2.4863534 -3.0037961 1.8683679
-2.4449666 -2.9813237 1.8361901
-2.3530469 -2.955641 1.8489196
-2.2438323 -2.9195259 1.8436155
-2.1229467 -2.8914366 1.8436158
-2.043443 -2.8662896 1.8531629
-1.9415432 -2.846961 1.8436158
-1.8442342 -2.8258932 1.8559917
-1.7742555 -2.8258934 1.8188633
-1.6973698 -2.81653 1.8064871
-1.7373142 -2.7978036 1.8683679
-1.6327975 -2.7821975 1.8477407
-1.5369902 -2.7566044 1.8460909
-1.4403673 -2.7255728 1.8489195
-1.3209481 -2.7228968 1.8147379
-1.2438614 -2.7041702 1.8064871
-1.3435733 -2.6792016 1.8724934
-1.2418596 -2.6573536 1.8559916
-1.1466388 -2.6399646 1.8383113
-1.048643 -2.6292641 1.8147379
-0.9735592 -2.6105373 1.8064871
-1.1087105 -2.5918107 1.880744
-1.0330254 -2.5768301 1.8609422
-0.94712961 -2.5597084 1.8489196
-0.85713404 -2.5367324 1.8457991
-0.72067571 -2.5169046 1.8312395
-0.66721576 -2.5356307 1.8064877
-0.82038772 -2.4981775 1.880744
-0.73449153 -2.4888148 1.8683679
-0.64463079 -2.4682152 1.8609425
-0.5508855 -2.463846 1.8353647
-0.4560793 -2.4326344 1.8436155
-0.36159375 -2.4195256 1.8262888
-0.25094962 -2.4045448 1.8064871
-0.33344188 -2.3795764 1.8724934
-0.23653337 -2.3670919 1.8559916
-0.14839144 -2.3581357 1.8430777
-0.05693233 -2.3390019 1.8436157
0.057624478 -2.3269629 1.8347753
0.23799798 -2.3159053 1.8163884
0.075315751 -2.2703376 1.8724935
0.14689595 -2.244328 1.8449899
0.21264961 -2.2547319 1.8064879
0.15707877 -2.1798263 1.8665997
0.24036312 -2.1423736 1.8358797
0.31728673 -2.1049194 1.8064871
0.28465033 -2.0799508 1.8724935
0.35733166 -2.0612237 1.8422402
0.44710732 -2.0229907 1.8343334
0.48187113 -1.9925598 1.880744
0.55048132 -1.975914 1.8449903
0.64813721 -1.9326348 1.8386648
0.73640627 -1.8989267 1.8436155
0.83897114 -1.8708371 1.8436153
