# .PCD v0.7 - Point Cloud Data file format
VERSION 0.7
FIELDS x y z
SIZE 4 4 4
TYPE F F F
COUNT 1 1 1
WIDTH 1503
HEIGHT 1
VIEWPOINT 0 0 0 1 0 0 0
POINTS 1503
DATA ascii
1.7037245 0.16329964 -4.010345
1.6641732 0.24993332 -4.0598507
1.7074375 0.24993329 -4.0103455
1.6747179 0.3489432 -4.072226
1.7187312 0.3489432 -4.0227208
1.6929574 0.44052738 -4.0796523
1.7373096 0.45132846 -4.0328469
1.6930501 0.5469631 -4.0846028
1.7436897 0.54696286 -4.0350966
1.6808288 0.65422374 -4.0763526
1.7266212 0.6410225 -4.0301466
1.665544 0.7499333 -4.0648012
1.7089847 0.73673195 -4.0185952
1.6589124 0.84399295 -4.0598488
1.7091397 0.84399283 -4.0103455
1.6677094 0.938052 -4.0648017
1.7093972 0.95125359 -4.0185957
1.6792814 1.0337617 -4.0763526
1.7236512 1.046963 -4.0301466
1.68021 1.1463268 -4.073997
1.7253829 1.1368971 -4.0268459
1.6631924 1.2435684 -4.0527763
1.7077473 1.2152801 -4.0103455
1.5867693 1.3563688 -4.0747023
1.6289612 1.3311665 -4.0350971
1.5533864 1.4530336 -4.0494266
1.6096653 1.4009236 -4.0103455
1.4728394 1.5714407 -4.0653529
1.5194072 1.549438 -4.0244889
1.384595 1.6838087 -4.0598502
1.4350916 1.6429474 -4.037848
1.3321667 1.7598338 -4.047473
1.2739398 1.8613187 -4.0449977
1.3027346 1.8217156 -4.0846028
1.181757 1.9826066 -4.0103455
1.2408528 1.9543182 -4.0527763
1.1720111 2.0568643 -4.0103455
1.2427099 2.053489 -4.0576
1.3002595 2.0939927 -4.0846028
1.196454 2.1558738 -4.0103455
1.2487435 2.1558738 -4.047473
1.308304 2.1558738 -4.0846028
1.2577863 2.2515087 -4.0328465
1.3177098 2.2623096 -4.0796523
1.2823139 2.3250158 -4.0185962
1.338729 2.3580201 -4.0515985
1.4054575 2.3910227 -4.0846028
1.3543437 2.4256761 -4.0301476
1.4276252 2.4499917 -4.05621
1.1835929 -1.1378558 -3.9294882
1.146042 -1.0480775 -3.9474003
1.1350366 -0.93818516 -3.948467
1.1610272 -0.8416509 -3.9509418
1.2055812 -0.80204695 -3.9113355
1.2408539 -0.74016571 -3.9484658
1.2781371 -0.67209643 -3.9670284
1.3322834 -0.63084251 -3.9422755
1.3730043 -0.551772 -3.966342
1.4353374 -0.52976984 -3.9254799
1.4554688 -0.4510119 -3.9608414
1.5246409 -0.42580938 -3.9212377
1.4846656 -0.3688786 -3.9855924
1.5475931 -0.34317404 -3.9456072
1.6022396 -0.30699742 -3.9113355
1.5788019 -0.25439841 -3.9701238
1.6268373 -0.23583412 -3.9268055
1.6595677 -0.14964236 -3.9537706
1.7086754 -0.12135386 -3.9113355
1.6862745 -0.054522134 -3.9806435
1.7328088 -0.043721076 -3.9338372
1.7405056 0.051913507 -3.9484677
1.7461522 0.15092334 -3.9484668
1.7545065 0.24993336 -3.9484658
1.7716515 0.34227917 -3.9551311
1.8062414 0.37782118 -3.9195867
1.7840468 0.44052735 -3.9806433
1.8258564 0.45132843 -3.9338372
1.7891213 0.5543887 -3.9806428
1.8362067 0.54358751 -3.9338353
1.7745171 0.65092355 -3.9657929
1.823568 0.63772207 -3.9195871
1.7609859 0.7474581 -3.950942
1.8076851 0.70785415 -3.9113355
1.7477386 0.84399289 -3.9484658
1.7614948 0.93946695 -3.9537692
1.8135642 0.96775502 -3.9113355
1.7778268 1.0420122 -3.96084
1.8265591 1.0420126 -3.9113364
1.7729843 1.1438787 -3.9570324
1.8179991 1.1286463 -3.9113355
1.69073 1.2771611 -3.9855926
1.7360678 1.2375568 -3.9459891
1.670499 1.3457059 -3.9551301
1.7074379 1.3101643 -3.9195867
1.5890386 1.4916826 -3.9773419
1.6337993 1.4431485 -3.9433706
1.5618739 1.5684787 -3.9551299
1.6137911 1.5329366 -3.9195867
1.4514718 1.6725662 -3.9678228
1.5211191 1.6304464 -3.9420893
1.3344426 1.7692404 -3.980643
1.2587254 1.8664181 -3.9597318
1.1615222 1.9751809 -3.9534159
1.2252802 1.9289763 -3.9402134
1.1271856 2.0568647 -3.9484658
1.1536013 2.1558733 -3.9484673
1.1836846 2.2482202 -3.9418015
1.2202264 2.283762 -3.9773417
1.2533946 2.3514194 -3.9459915
1.3021159 2.3910227 -3.9855926
1.3412697 2.4382765 -3.9450893
1.4487746 2.4847286 -3.9537687
1.4828091 2.5147851 -3.9410386
1.2148633 -1.2228392 -3.8123255
1.1728984 -1.1521645 -3.848151
1.2148633 -1.1980866 -3.8123252
1.1243938 -1.0495714 -3.8494506
1.1281915 -0.93818521 -3.8494527
1.16879 -0.85380203 -3.8528304
1.2154825 -0.8069976 -3.8420281
1.2606554 -0.76182431 -3.858736
1.3296529 -0.71850741 -3.8401723
1.3722479 -0.66178274 -3.8700807
1.4535875 -0.63152993 -3.839829
1.5211753 -0.60402721 -3.8123252
1.475383 -0.5594728 -3.876682
1.5477843 -0.53719544 -3.8395541
1.6102846 -0.50501728 -3.8123252
1.5694427 -0.44726145 -3.8700814
1.6351249 -0.43783194 -3.8229342
1.5861504 -0.38125491 -3.8865831
1.6441951 -0.34165087 -3.8469782
1.6736846 -0.25299197 -3.8618317
1.7179576 -0.22778948 -3.8222256
1.6932051 -0.18323505 -3.8865831
1.7465055 -0.14363104 -3.8469796
1.7788661 -0.059472635 -3.8724384
1.8228803 -0.037470449 -3.8315785
1.792215 0.03953727 -3.8865824
1.8403866 0.054769546 -3.8408868
1.8313931 0.15092333 -3.8494534
1.8347204 0.24993335 -3.8494525
1.8548913 0.3454071 -3.8547568
1.9162867 0.37369573 -3.812325
1.8786014 0.44052747 -3.8816321
1.945749 0.446578 -3.8398302
2.0174627 0.4727056 -3.812325
1.8941644 0.54696304 -3.8865821
1.9589076 0.54696286 -3.8494539
2.0217941 0.54696304 -3.812325
1.878106 0.65339869 -3.8816319
1.9468054 0.64259762 -3.8348303
1.8571342 0.74835789 -3.8640816
1.9240217 0.73755711 -3.8172755
1.7971656 0.84399271 -3.8865829
1.8534154 0.84399277 -3.8568802
1.9274253 0.84399271 -3.812325
1.858737 0.94300294 -3.8742065
1.9460671 0.9430027 -3.824702
1.8743109 1.0420126 -3.8783319
1.9494556 1.0420126 -3.8321295
1.8590937 1.1476868 -3.8561182
1.9168025 1.1121444 -3.8205762
1.7804575 1.2493143 -3.8711126
1.8256314 1.2307503 -3.8277967
1.6975367 1.376171 -3.8865831
1.7446902 1.3365663 -3.8469775
1.6796423 1.4648677 -3.8638921
1.720665 1.4287699 -3.8277965
1.5739087 1.5989434 -3.851068
1.6401935 1.5494384 -3.8494546
1.5304765 1.6319466 -3.852829
1.1396778 1.9826064 -3.8494546
1.2072372 1.936781 -3.850457
1.0979079 2.0741913 -3.8222253
1.1025215 2.0489881 -3.8618309
1.0979079 2.1187456 -3.8123252
1.1192367 2.1583481 -3.8519309
1.1690717 2.2548835 -3.8494565
1.2405443 2.3538952 -3.8494546
1.298403 2.4157753 -3.8123252
1.3422875 2.4467151 -3.8494551
1.4155644 2.4900324 -3.8618305
1.4629041 2.524411 -3.843266
1.2341502 -1.2290273 -3.739099
1.1680914 -1.1485819 -3.7504442
1.2105317 -1.1980863 -3.7504439
1.125012 -1.0495714 -3.7504432
1.1461761 -0.93818533 -3.7504439
1.1869137 -0.86805362 -3.7586954
1.2346655 -0.82184911 -3.7454925
1.2869551 -0.77729458 -3.7751968
1.3483417 -0.74511629 -3.7529192
1.4411939 -0.70922536 -3.7318797
1.4716705 -0.67209649 -3.7690091
1.5495286 -0.63328034 -3.7470682
1.6220417 -0.60402721 -3.7133157
1.5890385 -0.57102382 -3.7793224
1.651693 -0.53802055 -3.7463188
1.709913 -0.50501728 -3.7133157
1.6773223 -0.45138678 -3.7793229
1.7237134 -0.43818554 -3.7331176
1.6956805 -0.3688786 -3.7875736
1.7335156 -0.34059 -3.7451394
1.7596116 -0.24511617 -3.7504435
1.7781881 -0.16673343 -3.7710707
1.8271158 -0.13373002 -3.7380688
1.8676484 -0.059472635 -3.7628186
1.936295 -0.02646935 -3.7298176
1.8930812 0.027161062 -3.7875736
1.9512061 0.05544956 -3.7451386
1.8936999 0.16329964 -3.7875741
1.9438239 0.14679797 -3.7545693
2.0126665 0.1509234 -3.7133157
1.8964852 0.2251808 -3.7875736
1.9406682 0.25488389 -3.7578695
2.0205564 0.24993333 -3.7133157
1.9460928 0.34069237 -3.7793229
2.0534227 0.35031825 -3.7353184
2.1158535 0.38607192 -3.7133157
2.0662796 0.44382763 -3.7710695
2.1554575 0.44795302 -3.7256923
2.2062001 0.48508176 -3.7133157
2.0852227 0.54696292 -3.7751958
2.1551483 0.54696304 -3.7380681
2.2191954 0.5469631 -3.7133157
1.9976605 0.68310159 -3.7875729
2.0546052 0.64704919 -3.7692759
2.1406834 0.652161 -3.7287853
2.2158303 0.63204956 -3.713315
1.9724433 0.74498272 -3.7875743
2.0456529 0.7491082 -3.7463181
2.1232793 0.73260665 -3.713315
1.9721346 0.84399265 -3.7875743
2.0468218 0.83986723 -3.7463183
2.12988 0.85636902 -3.713315
2.0397398 0.93475175 -3.7793224
2.1380534 0.9430027 -3.7380676
2.213007 0.96775502 -3.7133155
2.0425756 1.0502633 -3.7765715
2.1283088 1.0277321 -3.7393372
2.2111509 1.0048838 -3.7133157
1.889987 1.1781511 -3.7875729
1.9364601 1.126171 -3.7875733
1.8699316 1.245916 -3.7660654
1.9216707 1.2573591 -3.7133152
1.7792202 1.3679202 -3.7793224
1.837103 1.332378 -3.7437797
1.7591528 1.4592688 -3.7628195
1.8177923 1.4298015 -3.7215669
1.6495333 1.5613562 -3.7609863
1.7220829 1.5246855 -3.7380676
1.1710582 1.9767437 -3.749357
1.2105317 1.9392899 -3.7875729
1.0979079 2.0741911 -3.7776725
1.1159099 2.0489886 -3.7380676
1.0979079 2.1187456 -3.7875729
1.1129661 2.1583488 -3.7479689
1.1474125 2.2548833 -3.7504435
1.1791787 2.3332667 -3.7298174
1.2273633 2.3662703 -3.7628198
1.2592313 2.4405274 -3.7380686
1.3305814 2.4735312 -3.7710717
1.2710207 2.5519137 -3.7133157
1.3478105 2.5349779 -3.753701
1.4320664 2.551914 -3.7813849
1.3027345 2.6205454 -3.7178159
1.2429707 -1.2254447 -3.6599026
1.1702472 -1.1436313 -3.6563835
1.2174419 -1.1898353 -3.6431835
1.1485885 -1.0495714 -3.6514382
1.1764143 -0.94066066 -3.6539097
1.2024872 -0.90105689 -3.6143055
1.2476603 -0.84447974 -3.6549716
1.3172768 -0.8020469 -3.6266818
1.3649254 -0.76904356 -3.6596849
1.4554931 -0.73132551 -3.6496656
1.5213816 -0.70303714 -3.6390576
1.5703269 -0.66767615 -3.656739
1.6390939 -0.62052888 -3.6473076
1.6862435 -0.57308662 -3.6699982
1.7375536 -0.53183234 -3.6452451
1.7734252 -0.4510119 -3.6638081
1.8149871 -0.42580935 -3.6242068
1.7891979 -0.34412619 -3.6761844
1.8308133 -0.34412622 -3.6266813
1.7949996 -0.26986873 -3.6885631
1.8397747 -0.2415801 -3.6461303
1.8655883 -0.15848255 -3.6744184
1.9373605 -0.13648032 -3.6335566
1.9689889 -0.067723438 -3.6720612
2.0482488 -0.03781423 -3.6452463
2.1170909 -0.022343934 -3.614305
2.051652 0.0519135 -3.6761851
2.1484184 0.0519135 -3.6266809
2.0604706 0.15092339 -3.676187
2.1648436 0.14267257 -3.6308076
2.2061999 0.17567587 -3.614305
2.0643892 0.2416825 -3.680311
2.1553543 0.25818419 -3.6473095
2.2134709 0.2499333 -3.6143043
2.0781059 0.31181452 -3.6885629
2.1636574 0.34275508 -3.666903
2.2470424 0.36131951 -3.6284485
2.1944427 0.41082436 -3.6885629
2.2598522 0.44300273 -3.6613348
2.3314471 0.46527976 -3.6242068
2.2705564 0.54696292 -3.6761851
2.3418756 0.54696286 -3.6266811
2.2517176 0.65009826 -3.6720586
2.3269567 0.64066881 -3.6249132
2.176033 0.74498272 -3.6885629
2.2543895 0.74498284 -3.651433
2.3158846 0.74498284 -3.6143043
2.1775286 0.83161646 -3.6885636
2.25598 0.84811831 -3.6555576
2.3270235 0.84399259 -3.6143043
2.2529209 0.94300282 -3.6761875
2.319211 0.94300246 -3.6266818
2.1746407 1.0543888 -3.6885631
2.260323 1.0301123 -3.6533375
2.3141828 1.0172601 -3.614305
1.9691267 1.2606595 -3.6775618
2.0445042 1.2573591 -3.6316326
2.1152349 1.2276561 -3.6143055
1.8890586 1.3576066 -3.6823747
1.9557498 1.335667 -3.6435566
2.0149872 1.3019135 -3.6143055
1.8608118 1.4583495 -3.6674395
1.9354262 1.432748 -3.624913
1.6925862 1.5494382 -3.6885629
1.7569427 1.5246859 -3.6885629
1.819708 1.524686 -3.6532028
1.191461 1.9882324 -3.6705611
1.2309525 1.9949831 -3.6143055
1.1501981 2.056865 -3.6514359
1.1175168 2.1558735 -3.6514349
1.1255605 2.2548838 -3.6514373
1.1530977 2.3538954 -3.6514363
1.1621094 2.4529035 -3.6390567
1.220278 2.452904 -3.6885629
1.0917199 2.5890424 -3.6143055
1.1584954 2.548538 -3.6413062
1.2303336 2.5519137 -3.6885629
1.0876975 2.6509235 -3.6143043
1.1618006 2.6509233 -3.6514335
1.2204002 2.6437585 -3.6885633
1.0991454 2.7128048 -3.6143055
1.1500945 2.7499332 -3.6266818
1.2012498 2.7403078 -3.6610599
1.2123882 2.8185656 -3.6188056
1.3411009 -1.321849 -3.5235462
1.2725254 -1.2346531 -3.5496123
1.3147645 -1.282245 -3.5321276
1.1867694 -1.1337303 -3.5697517
1.2258332 -1.1733341 -3.5445478
1.1746097 -1.0495713 -3.5524216
1.1860268 -0.96541339 -3.5697517
1.2186327 -0.92580938 -3.5445502
1.2678493 -0.86083406 -3.561707
1.341808 -0.81972742 -3.547121
1.4060763 -0.80204695 -3.5152955
1.3955564 -0.77729458 -3.5895534
1.4539018 -0.76315039 -3.5471213
1.543839 -0.71541345 -3.5524242
1.5892446 -0.67828459 -3.5771768
1.6508443 -0.64453143 -3.5513003
1.7076441 -0.60402709 -3.5400479
1.7618933 -0.55452228 -3.5603011
1.8141209 -0.51491833 -3.5350974
1.8538892 -0.44561121 -3.5548992
1.9252596 -0.40600738 -3.5152955
1.8822522 -0.34412616 -3.5771785
1.9497023 -0.34412619 -3.5276723
1.8862743 -0.26986873 -3.5895536
1.9460236 -0.24374105 -3.5620525
2.0305815 -0.23769055 -3.5202467
1.9772396 -0.17498425 -3.5813026
2.0613291 -0.14473116 -3.556551
2.1454024 -0.12754196 -3.5214839
2.0929575 -0.084225059 -3.5895534
2.1671457 -0.056722358 -3.5620518
2.254364 -0.02646935 -3.5317979
2.2591074 0.051913492 -3.5648029
2.3163486 0.0519135 -3.5152965
2.2654002 0.15092333 -3.5648024
2.3245478 0.1509234 -3.5152965
2.2683628 0.24655803 -3.5670521
2.3333044 0.25735909 -3.5202465
2.280045 0.32006529 -3.5813026
2.3483026 0.35231864 -3.5513003
2.425878 0.37369573 -3.5152957
2.374517 0.44264898 -3.5789461
2.4423802 0.45207843 -3.5317976
2.3848815 0.54696298 -3.5895536
2.4461441 0.54696292 -3.5400493
2.3748705 0.65127707 -3.5789461
2.4411428 0.64184767 -3.5317988
2.3605158 0.7449826 -3.577178
2.4247959 0.74498284 -3.5276699
2.3646157 0.84399295 -3.5771785
2.4193807 0.84399271 -3.5276716
2.3698473 0.94637811 -3.5670531
2.4163487 0.93557698 -3.5202465
2.3507133 1.0444871 -3.5548987
2.400507 1.0048838 -3.5152955
2.3121378 1.1339216 -3.5376124
2.088007 1.2771611 -3.5895534
2.1466599 1.2557533 -3.5627944
2.2488234 1.2336566 -3.522047
2.0491767 1.3390427 -3.5771787
2.1332581 1.3390424 -3.5276706
1.9589378 1.4571793 -3.576803
2.0351453 1.4121748 -3.5550501
2.1065714 1.4009236 -3.5152955
1.2458038 1.994983 -3.5796525
1.1824535 2.0785224 -3.561708
1.2348812 2.0370047 -3.5452294
1.14107 2.1558738 -3.5524225
1.1210742 2.2548838 -3.552423
1.0954328 2.3910227 -3.5152955
1.1120995 2.3514197 -3.5548987
1.0770745 2.4570291 -3.5317988
1.1128478 2.4475996 -3.5789459
1.0448549 2.5543876 -3.5499485
1.1065714 2.5147848 -3.5895534
0.9970417 2.6632998 -3.5152962
1.0207946 2.6480682 -3.560993
1.0358498 2.7463982 -3.5471191
1.1093562 2.7746859 -3.5895536
1.0694425 2.8200655 -3.5235465
1.1418437 2.8436391 -3.5471206
1.2203833 2.8652797 -3.5677714
1.2321901 2.9108245 -3.5152955
1.3510017 2.9293888 -3.5313842
1.3664722 -1.4291095 -3.4224739
1.3448321 -1.350906 -3.444268
1.275772 -1.2546642 -3.4498787
1.317277 -1.2970964 -3.4781671
1.2343174 -1.1609581 -3.453414
1.197124 -1.0495716 -3.4905431
1.2187585 -1.0495716 -3.4468629
1.249517 -0.94484955 -3.4600782
1.3161421 -0.90930772 -3.4245367
1.2866458 -0.87630451 -3.4905431
1.3552564 -0.85464591 -3.4596021
1.4420559 -0.81619126 -3.4410377
1.4818807 -0.77729458 -3.4781671
1.5514408 -0.74354118 -3.4522886
1.6084276 -0.70303714 -3.4410384
1.660408 -0.66178304 -3.4575396
1.726002 -0.61463529 -3.4481101
1.7793227 -0.571024 -3.4616637
1.8382827 -0.52701938 -3.4520395
1.9097893 -0.50501728 -3.416286
1.8908124 -0.47201386 -3.4822922
1.951946 -0.44932425 -3.4534144
2.0290964 -0.41590846 -3.4360883
1.9874501 -0.3688786 -3.4905431
2.0574384 -0.34660137 -3.4583645
2.1260643 -0.32556176 -3.4224734
2.0712991 -0.26368058 -3.484354
2.1473515 -0.24264099 -3.4484649
2.2148633 -0.22036374 -3.4162862
2.1644924 -0.16343312 -3.4806414
2.2422767 -0.14115579 -3.4435141
2.3083041 -0.10897756 -3.416286
2.2708659 -0.065660745 -3.4843545
2.3477013 -0.040908292 -3.4431024
2.3651667 0.047788091 -3.4740403
2.4271164 0.057217609 -3.4268949
2.3790803 0.15092337 -3.4781661
2.441968 0.15092339 -3.428663
2.3708038 0.23755704 -3.4905431
2.4460404 0.24993338 -3.4472275
2.5038488 0.28706199 -3.416286
2.4617007 0.34481788 -3.4740403
2.5181696 0.35424736 -3.4268937
2.4820666 0.44052735 -3.4855917
2.5283756 0.45132849 -3.4387884
2.4896159 0.54696316 -3.4905424
2.5301487 0.54696286 -3.4410396
2.4813058 0.65127707 -3.4799337
2.5286014 0.64184761 -3.4327869
2.4723513 0.74993342 -3.4707401
2.5210724 0.73673183 -3.4245365
2.4698656 0.84399277 -3.4657903
2.5122025 0.84399265 -3.4162855
2.4628003 0.94547802 -3.4558904
2.5019922 0.90587389 -3.416286
2.3906059 1.0708907 -3.4822922
2.4334941 1.0353479 -3.4467511
2.3630483 1.1434982 -3.4558892
2.4116459 1.1038938 -3.416286
2.2706597 1.2606592 -3.4740405
2.3245168 1.2276562 -3.4410381
2.1775582 1.370867 -3.4631376
2.2430811 1.3266664 -3.4534147
2.3021162 1.3019135 -3.416286
2.1388736 1.405874 -3.4740415
1.2314314 2.0743775 -3.4629872
1.1654027 2.1611784 -3.4569499
1.2043434 2.1187458 -3.4286628
1.0966702 2.2920129 -3.416286
1.1210512 2.2524085 -3.4558904
1.0689669 2.3605592 -3.4467511
1.1012083 2.3250158 -3.4822922
0.98734695 2.4817815 -3.4245372
1.0286963 2.446239 -3.4600787
0.9826324 2.5554488 -3.4481103
1.004777 2.5271611 -3.4905431
0.98253846 2.6509237 -3.4534149
0.98872197 2.7320571 -3.4437885
1.008446 2.7729182 -3.4657905
1.0524044 2.8464673 -3.4509394
1.1220417 2.8860722 -3.4905431
1.0892447 2.9108245 -3.416286
1.1603048 2.9273262 -3.445163
1.2472478 2.9438279 -3.4657907
1.3386258 2.9727063 -3.453414
1.4029824 2.9850821 -3.4740415
1.4029825 3.0133708 -3.4304304
1.1761034 -1.4463614 -3.3262765
1.2553675 -1.4433609 -3.3555298
1.3413807 -1.4551933 -3.3803546
1.1725363 -1.3664038 -3.3222265
1.2412404 -1.3496959 -3.3605919
1.3099542 -1.371354 -3.3915331
1.1944426 -1.2970964 -3.317276
1.2451026 -1.2574928 -3.3568814
1.2458808 -1.1609585 -3.3544064
1.2653146 -1.0568517 -3.3595026
1.3107792 -1.0083175 -3.325527
1.2897396 -0.97531426 -3.3915334
1.3454326 -0.94104123 -3.3553576
1.4258783 -0.90105695 -3.3296523
1.3893685 -0.87630451 -3.3915334
1.4544981 -0.85464567 -3.3605928
1.5278057 -0.81619126 -3.3420284
1.5687 -0.76739347 -3.3717313
1.6375893 -0.72734761 -3.3508689
1.6802101 -0.67828459 -3.3791568
1.7421794 -0.63585198 -3.3508682
1.8465475 -0.55947274 -3.3593545
1.939368 -0.51491833 -3.3519289
2.0199378 -0.50501728 -3.317276
1.9716704 -0.48026466 -3.3915334
2.0545912 -0.46046272 -3.371732
2.1394467 -0.43385392 -3.3482161
2.2126975 -0.4183836 -3.317276
2.168577 -0.361453 -3.3816321
2.2487125 -0.33917564 -3.3445034
2.3169675 -0.30699742 -3.317276
2.2542021 -0.25042036 -3.3809257
2.3341565 -0.24099079 -3.333777
2.2835519 -0.18323505 -3.3915334
2.355849 -0.15023172 -3.3585293
2.4139149 -0.11722843 -3.3255267
2.3782301 -0.071848869 -3.3915334
2.4402893 -0.043560348 -3.3491008
2.4709136 0.047788091 -3.375031
2.5193191 0.057217598 -3.3278837
2.4823968 0.13854714 -3.3915331
2.5378356 0.15377942 -3.3458354
2.5522928 0.2463972 -3.3597093
2.6078091 0.27468577 -3.317276
2.5680816 0.34399283 -3.3717322
2.6174004 0.3571941 -3.3255262
2.5786471 0.44795319 -3.3791559
2.6241298 0.44795308 -3.3296516
2.585763 0.54696304 -3.3791578
2.6266828 0.54696298 -3.3296514
2.5772555 0.64597297 -3.3791568
2.6201081 0.64597303 -3.3296516
2.565593 0.74910814 -3.3750322
2.6125832 0.73967868 -3.3278842
2.5615301 0.84752911 -3.3597093
2.6071901 0.81924021 -3.317276
2.4920912 0.98013133 -3.3915334
2.5385437 0.94052744 -3.3519311
2.4737749 1.0469627 -3.3717325
2.5152967 1.0337616 -3.3255265
2.3955564 1.1657748 -3.3915334
2.4457684 1.1374873 -3.3491008
2.3679364 1.247908 -3.3667803
2.41573 1.2227056 -3.327177
2.2663376 1.3604192 -3.3630307
2.3238928 1.314027 -3.3551943
2.1901112 1.4009235 -3.3915334
1.2141972 2.0939925 -3.3572607
1.1658741 2.1682503 -3.3544047
1.2131622 2.1187451 -3.3544049
1.082968 2.281404 -3.3491001
1.1189474 2.2342577 -3.3585286
1.0351759 2.3538947 -3.3544068
0.97591978 2.4553797 -3.3519309
1.0032296 2.4157753 -3.3915334
0.95666409 2.5519121 -3.3544042
0.96888506 2.6509242 -3.3544061
0.98492348 2.7375576 -3.3544033
1.0046221 2.7870626 -3.3544044
1.0295677 2.8489428 -3.3544064
1.065214 2.9190762 -3.3461535
1.1486504 2.9603291 -3.3544054
1.2346654 2.9850821 -3.3791568
1.2782917 3.0098343 -3.3296523
1.350796 3.0263364 -3.3502793
1.4029825 3.0428379 -3.3684311
1.1761436 -1.6294868 -3.218266
1.142096 -1.546913 -3.2402678
1.0941954 -1.4332349 -3.218266
1.1204765 -1.4611198 -3.2603137
1.0954326 -1.3837303 -3.218266
1.1195223 -1.3554415 -3.2607
1.166225 -1.2772946 -3.2504442
1.2161011 -1.2310899 -3.2636459
1.2503675 -1.1609581 -3.2553937
1.2858499 -1.0884683 -3.260699
1.3343416 -1.0286268 -3.2525392
1.3757546 -0.96912622 -3.2739596
1.4460928 -0.9340601 -3.2567687
1.5298388 -0.90930778 -3.2265167
1.5496407 -0.8598026 -3.2760217
1.6441125 -0.82954973 -3.2457695
1.7173388 -0.80204695 -3.218266
1.677393 -0.75851673 -3.2822809
1.7526846 -0.73576063 -3.2446954
1.81573 -0.70303702 -3.218266
1.7727844 -0.65848273 -3.2826231
1.8425857 -0.63620538 -3.2454922
1.9203091 -0.60402721 -3.218266
1.8670912 -0.57927465 -3.2925231
1.9422326 -0.56159437 -3.260699
2.0415964 -0.52481937 -3.2578707
2.1412249 -0.51326811 -3.2265167
2.1723719 -0.48026466 -3.267771
2.2473507 -0.44066086 -3.2603459
2.3212986 -0.41425818 -3.2265167
2.2894306 -0.3688786 -3.2925229
2.3525734 -0.34317401 -3.2525399
2.4011259 -0.30699742 -3.218266
2.376745 -0.26244295 -3.2826223
2.4241335 -0.23724046 -3.2430189
2.4581447 -0.14964235 -3.2606986
2.511893 -0.12135386 -3.218266
2.4795086 -0.075974263 -3.2842722
2.5313621 -0.040432293 -3.2487309
2.5627489 0.044037726 -3.2677712
2.6127591 0.069240212 -3.228168
2.5876977 0.13235907 -3.2863355
2.6394722 0.15711148 -3.2450812
2.6551039 0.24639726 -3.2606983
2.7102222 0.27468577 -3.218266
2.6675861 0.34399262 -3.2727227
2.7179577 0.3571941 -3.2265174
2.6720114 0.44795308 -3.2801483
2.7203555 0.4479531 -3.2306421
2.6702316 0.54696298 -3.2801476
2.720434 0.54696298 -3.2306421
2.670583 0.65009844 -3.2760224
2.7140675 0.64066899 -3.2288749
2.6643794 0.74498278 -3.2677715
2.7091398 0.74498296 -3.2182665
2.6496224 0.84752899 -3.2606978
2.7031064 0.81924021 -3.218266
2.5829015 0.96156687 -3.2863355
2.6311686 0.93681431 -3.2450812
2.5615404 1.0486761 -3.2620606
2.6115217 1.0131346 -3.226517
2.4867282 1.1616495 -3.276022
2.5289721 1.1286465 -3.2430174
2.3896778 1.277161 -3.2553945
2.4416578 1.2347282 -3.2553947
2.3609426 1.3098985 -3.2629805
1.2136259 2.0939927 -3.2925234
1.1559215 2.1682501 -3.2553954
1.208598 2.1187456 -3.2631295
1.0716796 2.2634516 -3.2525373
1.1082215 2.2177548 -3.2677705
0.99642277 2.3910222 -3.2306423
1.0186564 2.3485909 -3.2589312
0.96501887 2.4529033 -3.2553921
0.95202339 2.5519121 -3.255393
0.9657917 2.650924 -3.2553928
0.98218989 2.7499342 -3.255393
0.99436009 2.8283162 -3.2347684
1.0164721 2.8613205 -3.2677717
1.0535223 2.9333272 -3.2520201
1.1333044 2.9801319 -3.2628212
1.1932049 3.0098343 -3.218266
1.2497822 3.025393 -3.2479696
1.3426868 3.053925 -3.2693176
1.2309524 -1.7240767 -3.1275067
1.1678703 -1.6425396 -3.154566
1.2029823 -1.6931362 -3.1407082
1.0972891 -1.5198687 -3.1316323
1.1219537 -1.5623013 -3.1599212
1.0944009 -1.4555132 -3.1539106
1.1010022 -1.4951165 -3.1935136
1.0954325 -1.3736041 -3.1597612
1.1131306 -1.3268 -3.1489587
1.1568501 -1.2723441 -3.1563866
1.2123885 -1.2228394 -3.1563849
1.2509097 -1.1609585 -3.1563852
1.2987126 -1.0990767 -3.1563849
1.3424926 -1.0371953 -3.1563864
1.4544209 -0.96293819 -3.1563849
1.5702162 -0.91962117 -3.1749492
1.6268685 -0.91095781 -3.1489587
1.745129 -0.90105695 -3.1327572
1.6799005 -0.86392826 -3.1935136
1.7647398 -0.84660155 -3.1737118
1.8614191 -0.83092481 -3.1481354
1.9417613 -0.82679939 -3.1192555
1.8512673 -0.74546987 -3.182905
1.9471933 -0.73604053 -3.1357591
1.8875121 -0.66590834 -3.1935136
1.9571724 -0.64645994 -3.1687608
2.0419495 -0.62877971 -3.1334004
2.0566022 -0.57308662 -3.1749492
2.1543233 -0.5503968 -3.1522591
2.2361097 -0.51326805 -3.1481335
2.2563238 -0.48026466 -3.1811368
2.3433108 -0.43783194 -3.1528502
2.3883371 -0.36475334 -3.1770113
2.4303336 -0.33174986 -3.1440103
2.465173 -0.25749245 -3.168762
2.5151937 -0.22448921 -3.1357577
2.4914722 -0.18323505 -3.1935136
2.5484471 -0.14610627 -3.1563859
2.605953 -0.10897756 -3.119256
2.5852218 -0.067723468 -3.1770122
2.637141 -0.034720175 -3.1440101
2.6600983 0.045725387 -3.1666992
2.7207422 0.070477843 -3.1254439
2.6820662 0.12204552 -3.185262
2.7440422 0.1575875 -3.1497223
2.7561181 0.24993338 -3.168762
2.8135643 0.24993329 -3.1192555
2.7720413 0.34399265 -3.173712
2.824497 0.3571941 -3.1275072
2.7690086 0.44795319 -3.1811371
2.8285704 0.44795316 -3.1316333
2.7736516 0.54696298 -3.1811371
2.8303494 0.54696298 -3.1316335
2.7713304 0.64597297 -3.1811376
2.8236189 0.64597309 -3.1316328
2.7635651 0.74993342 -3.173712
2.8161423 0.73673201 -3.1275065
2.749517 0.84752882 -3.1616902
2.8052101 0.81924021 -3.1192558
2.6788487 0.95042837 -3.1885629
2.7346656 0.93962741 -3.1417601
2.6477931 1.0486765 -3.1630497
2.7092946 1.0131347 -3.1275065
2.5529845 1.150074 -3.1658061
2.6134055 1.1092746 -3.1386275
2.3868933 1.2771611 -3.1935134
2.4658196 1.2214682 -3.1698868
2.3664725 1.3019135 -3.1935134
1.1418438 2.1682501 -3.1563861
1.2017139 2.1187458 -3.1563849
1.0653043 2.2548838 -3.1563864
0.99410248 2.3910222 -3.1563849
1.0171016 2.3415184 -3.1563859
0.9727143 2.4529037 -3.1563852
0.95627773 2.5519123 -3.1563864
0.96231073 2.6509242 -3.1563861
0.97151625 2.749934 -3.1563869
0.98012757 2.8464668 -3.1539114
1.0044675 2.8860722 -3.1935136
0.98837823 2.9293888 -3.1254439
1.0328202 2.9513283 -3.1642623
1.1034774 2.9850821 -3.1935136
1.0793436 3.0180852 -3.1275067
1.1484032 3.0395374 -3.1526723
1.2404597 3.0660901 -3.1755123
1.1981556 3.1088443 -3.119256
1.2736504 3.1088445 -3.1539094
1.2295626 -1.7410173 -3.0502734
1.1624193 -1.6560072 -3.0573738
1.1163177 -1.5569977 -3.057375
1.0972894 -1.4579877 -3.0945044
1.1182773 -1.4579881 -3.0449979
1.0972891 -1.3961065 -3.0945034
1.1358203 -1.3565019 -3.0548987
1.1758395 -1.2599678 -3.0573747
1.1981556 -1.1980867 -3.0202463
1.2376777 -1.158483 -3.0598502
1.2852845 -1.0941265 -3.0499499
1.3369343 -1.0347201 -3.0598495
1.4307054 -0.96541351 -3.0604687
1.6034774 -0.92580932 -3.0846028
1.9562001 -0.90105695 -3.0945034
2.0663486 -0.91137046 -3.0449986
2.1047151 -0.90105689 -3.0202463
1.98219 -0.83917564 -3.0945044
2.0597734 -0.83917588 -3.0573745
2.1276109 -0.83917564 -3.020246
1.9988979 -0.77729458 -3.0945034
2.0568817 -0.74016571 -3.0697503
2.1522396 -0.73273998 -3.025197
2.0649047 -0.67003375 -3.0862534
2.1570387 -0.63978052 -3.0615003
2.2280135 -0.62259144 -3.0264339
2.1882544 -0.57927465 -3.0945034
2.2658312 -0.55002183 -3.06075
2.3305812 -0.51120543 -3.0388105
2.3698757 -0.45551232 -3.0697494
2.4321702 -0.42250904 -3.0367475
2.4683909 -0.35650235 -3.0697508
2.5195251 -0.32349902 -3.0367479
2.5539722 -0.25178024 -3.0640373
2.6253421 -0.21623833 -3.0284967
2.5880075 -0.1708588 -3.0945034
2.6520302 -0.14515425 -3.0545173
2.7142448 -0.10897756 -3.0202463
2.6761873 -0.065660745 -3.088316
2.7394109 -0.040908299 -3.047061
2.7639363 0.04696301 -3.0746996
2.8328507 0.060164314 -3.0284972
2.7823143 0.1261709 -3.0945034
2.850899 0.15092336 -3.057373
2.9085519 0.17567587 -3.0202463
2.8617284 0.24580793 -3.0780015
2.9275582 0.2552374 -3.0308547
2.8745172 0.3406924 -3.0862532
2.947104 0.35389379 -3.0400481
2.8754449 0.44795316 -3.0945044
2.952126 0.44795316 -3.0449982
2.876374 0.5469631 -3.0945044
2.9549115 0.5469628 -3.0449982
2.8643062 0.64597291 -3.0945044
2.9453204 0.64597309 -3.0449977
2.8686826 0.750287 -3.0838957
2.9416234 0.74085724 -3.0367477
2.8595526 0.8473683 -3.072
2.9253845 0.83656704 -3.0251973
2.7793746 0.96156687 -3.0883155
2.8409886 0.93962711 -3.0494981
2.9011259 0.90587389 -3.0202463
2.6703091 1.0791414 -3.0821273
2.7404165 1.0313436 -3.0663362
2.8138733 1.0048839 -3.0202463
2.6418853 1.1104944 -3.0813026
1.1461297 2.1627493 -3.0559988
1.2012496 2.1187453 -3.0945034
1.0671607 2.2548838 -3.0573745
1.0239985 2.3538947 -3.0573747
0.9883343 2.4582083 -3.0609095
1.0066332 2.4157753 -3.0326223
0.96289086 2.5519125 -3.0573757
0.9490453 2.650924 -3.057375
0.94533223 2.749934 -3.0573757
0.94834888 2.8489435 -3.0573747
0.89493769 2.9850821 -3.0202463
0.94972324 2.9454784 -3.0598497
0.89493763 3.0469632 -3.020246
0.95163304 3.0464404 -3.069401
0.89246213 3.1212206 -3.0202463
0.92780089 3.1459734 -3.050302
0.94779444 3.2305446 -3.0264339
1.2897396 -1.8168986 -2.9855928
1.2487057 -1.7525425 -2.959465
1.1736505 -1.6535318 -2.9608383
1.2049623 -1.6931361 -2.921236
1.1518991 -1.5569971 -2.9583635
1.157778 -1.4579881 -2.9583635
1.1634631 -1.3589772 -2.958365
1.1790496 -1.2599677 -2.958365
1.1955563 -1.1931359 -2.9509382
1.2240326 -1.1463313 -2.9617393
1.2737118 -1.0792747 -2.953413
1.3285389 -1.0198683 -2.963316
1.3916891 -0.9753145 -2.958365
1.4116457 -0.95056188 -2.958365
2.1402447 -0.90930772 -2.958364
2.1660731 -0.84583968 -2.9650288
2.2078502 -0.81029773 -2.9294865
2.1848512 -0.75873011 -2.9893055
2.2311597 -0.73397774 -2.9480505
2.2649875 -0.64903146 -2.9707394
2.3238981 -0.62382913 -2.9311371
2.2996407 -0.57927465 -2.9954937
2.3611095 -0.55177194 -2.9679904
2.4272189 -0.52151895 -2.9377375
2.4578087 -0.45551232 -2.9707413
2.519732 -0.42250898 -2.9377377
2.5546534 -0.35650241 -2.9707401
2.6223514 -0.32349902 -2.9377377
2.657572 -0.25130436 -2.9686787
2.7290959 -0.22655194 -2.9274232
2.6969182 -0.18323505 -2.9954937
2.7545238 -0.14948164 -2.9662406
2.8250122 -0.12754196 -2.9274235
2.7858205 -0.075974263 -2.9872429
2.8591027 -0.043721076 -2.9572399
2.9289727 -0.022343934 -2.921236
2.8804989 0.043662686 -2.9872425
2.9489119 0.053288627 -2.9432378
3.0026112 0.089042187 -2.921236
2.9563382 0.14679798 -2.9789915
3.0410652 0.15622748 -2.931844
2.9812009 0.24250759 -2.9905434
3.0511875 0.24993339 -2.952177
3.1121407 0.26230949 -2.9212353
2.9927101 0.31181452 -2.9954937
3.0446124 0.3489432 -2.9769285
3.1310589 0.35424736 -2.9318445
3.0592322 0.44795316 -2.9831169
3.1491141 0.44795316 -2.9336116
3.0626354 0.54696304 -2.9831178
3.1570826 0.54696298 -2.9336114
3.0550547 0.64597309 -2.9831176
3.1482635 0.64597303 -2.9336123
2.9958043 0.78211159 -2.9954937
3.0443037 0.74498284 -2.9769294
3.137954 0.73967874 -2.9318442
2.9797769 0.85513145 -2.9831171
3.0526407 0.82936633 -2.9519894
3.1139975 0.81924021 -2.921236
2.8697042 0.96638 -2.9954934
2.9378877 0.920542 -2.9789925
2.8138733 1.004884 -2.9954937
1.160347 2.1668556 -2.9627216
1.0771774 2.2651968 -2.9645534
1.1149253 2.223943 -2.9398
1.0450385 2.3538949 -2.9583635
0.99601048 2.4817817 -2.9872429
1.0165101 2.4462397 -2.9517
0.97646606 2.5519118 -2.9583633
0.94529361 2.6509242 -2.9583631
0.92587805 2.7499342 -2.9583626
0.88905889 2.8695703 -2.9377375
0.91647214 2.836566 -2.970741
0.87098098 2.9514892 -2.9530592
0.91721475 2.9232006 -2.9954937
0.84334439 3.0469623 -2.9583642
0.83889639 3.1459742 -2.958364
0.87241298 3.2326059 -2.945987
0.93784249 3.2656105 -2.9789917
0.95708686 3.3229198 -2.9399672
1.0296618 3.3646202 -2.9448097
1.0688238 3.4126244 -2.9257369
1.2757926 -1.7470834 -2.8618946
1.1925864 -1.6312549 -2.8964841
1.222864 -1.6595432 -2.8540523
1.1893157 -1.5516932 -2.8858767
1.2114255 -1.5611231 -2.8387282
1.1879172 -1.4546127 -2.8739831
1.2086755 -1.4654136 -2.8271773
1.1858228 -1.3554413 -2.8646598
1.2080564 -1.3837303 -2.822227
1.1835747 -1.2599678 -2.8593559
1.1905048 -1.1755842 -2.8559813
1.2135019 -1.1287796 -2.866781
1.2517217 -1.0619473 -2.8593557
1.3160396 -1.0000668 -2.859355
1.3672457 -0.9753145 -2.859355
1.4309466 -0.94584703 -2.8469789
2.1729081 -0.90765756 -2.8865829
2.2096038 -0.90105689 -2.8346028
2.1894922 -0.87630451 -2.8964839
2.2312405 -0.83670038 -2.8568795
2.2749503 -0.75254196 -2.8717322
2.3266618 -0.71953881 -2.8387287
2.3602223 -0.65353209 -2.8717322
2.420928 -0.62052876 -2.8387284
2.4611497 -0.54881006 -2.8660209
2.5259194 -0.51326817 -2.8304775
2.4976606 -0.48026466 -2.8964839
2.5563107 -0.45276204 -2.8689821
2.6197731 -0.42250896 -2.8387287
2.6568184 -0.35650241 -2.8717325
2.7330153 -0.32349902 -2.8387284
2.7630682 -0.25749245 -2.871732
2.8452268 -0.22448917 -2.8387282
2.862848 -0.1584826 -2.88234
2.9387188 -0.13991813 -2.8438854
3.0143685 -0.10897756 -2.8222265
2.959681 -0.056378584 -2.8810139
3.0497959 -0.03781423 -2.8376975
2.9970417 0.014784813 -2.8964839
3.0619495 0.050538372 -2.8744826
3.1464856 0.060164306 -2.8304775
3.088007 0.13854714 -2.8964841
3.140518 0.14915536 -2.8681955
3.2330153 0.15917422 -2.8304775
3.1623883 0.24250756 -2.8915341
3.2561691 0.2499333 -2.8531673
3.3392448 0.26230949 -2.822227
3.1857793 0.31181452 -2.8964839
3.2471304 0.35424736 -2.8823407
3.3398635 0.34151751 -2.8420277
3.4108207 0.36131948 -2.822227
3.2584121 0.4479531 -2.8841085
3.3641517 0.44795308 -2.8469782
3.4238672 0.4479531 -2.8222272
3.2396154 0.54696316 -2.8964841
3.3359962 0.54696298 -2.8593559
3.4323759 0.54696316 -2.8222272
3.2566335 0.6542238 -2.8882332
3.3424423 0.63772213 -2.8552294
3.4252601 0.64597285 -2.8222272
3.1919675 0.78211159 -2.8964839
3.2454195 0.74250764 -2.8794332
3.3480911 0.73535699 -2.837811
3.4091706 0.70785421 -2.8222265
3.1474693 0.82486582 -2.8964841
3.2253833 0.80686402 -2.8717313
1.1774259 2.1868141 -2.8737941
1.093989 2.283762 -2.8882332
1.1376548 2.24822 -2.8526919
1.0749707 2.35637 -2.8618309
1.1084279 2.3167651 -2.8222265
1.0308833 2.4529035 -2.8593564
0.97914082 2.5572164 -2.8558209
1.0013733 2.5147853 -2.8841076
0.94343698 2.650924 -2.8593564
0.91880053 2.7499342 -2.8593564
0.88635182 2.8489437 -2.8593564
0.84230012 2.9479527 -2.859355
0.78994614 3.06759 -2.8387284
0.80991286 3.0345871 -2.8717322
0.78658909 3.1425974 -2.8447282
0.80372459 3.1533985 -2.8915339
0.79097718 3.2202301 -2.822227
0.82527691 3.248517 -2.8646605
0.86894733 3.3316174 -2.8469791
0.93062234 3.3646193 -2.8799829
0.95764375 3.4223759 -2.8387284
1.0419056 3.4507389 -2.8670909
1.061398 3.5048845 -2.8304775
1.298403 -1.7178887 -2.7974739
1.3352118 -1.7315449 -2.7675996
1.2708042 -1.6510569 -2.7776706
1.3209894 -1.6642578 -2.7314672
1.2576773 -1.5569967 -2.7603445
1.2417432 -1.4579883 -2.7603455
1.196918 -1.321849 -2.7974739
1.221505 -1.3614526 -2.7578695
1.1938244 -1.2550172 -2.7776706
1.209088 -1.2682186 -2.731467
1.1942879 -1.1764278 -2.7758155
1.2078242 -1.1454875 -2.7448747
1.2516444 -1.0619476 -2.7603455
1.3169674 -1.0000668 -2.7603452
1.3591591 -0.96856385 -2.7569692
1.4291787 -0.94231105 -2.7974739
2.2402351 -0.90435737 -2.7529197
2.268925 -0.85155183 -2.7682195
2.3131311 -0.81194818 -2.7430191
2.3597608 -0.74682993 -2.7670083
2.4184525 -0.71128803 -2.7314677
2.3974133 -0.67828459 -2.7974739
2.4585719 -0.64528137 -2.7644706
2.5158124 -0.61227787 -2.7314675
2.4920912 -0.57927465 -2.7974739
2.5572217 -0.54627132 -2.7644696
2.6224544 -0.51326817 -2.7314677
2.5941954 -0.48026466 -2.7974739
2.6566958 -0.45276204 -2.7699702
2.7274458 -0.42250904 -2.7397177
2.7669678 -0.35650235 -2.7727203
2.8514977 -0.32679942 -2.7430186
2.9184527 -0.30699742 -2.7232168
2.8681743 -0.26368055 -2.7912855
2.9537251 -0.24649134 -2.7562196
3.0395336 -0.21623833 -2.7314675
2.9794054 -0.1708588 -2.7974739
3.0599134 -0.14858153 -2.7652948
3.144783 -0.12754196 -2.7294052
3.082747 -0.071848869 -2.7974739
3.1474133 -0.047096413 -2.7727211
3.2392032 -0.03884558 -2.7314675
3.1755691 0.027161062 -2.7974739
3.2465773 0.0519135 -2.7727203
3.3517239 0.060164321 -2.7314665
3.2810764 0.13235906 -2.7912855
3.3658543 0.15504882 -2.7685959
3.4434118 0.15917422 -2.7314675
3.3720417 0.22518083 -2.7974739
3.4381778 0.24993339 -2.7727211
3.5328083 0.25240856 -2.7331181
3.6071899 0.28706199 -2.7232168
3.4629037 0.34069243 -2.789222
3.5535603 0.3571941 -2.7562203
3.6395223 0.3489432 -2.7232168
3.4710519 0.44795308 -2.7974739
3.548774 0.44052726 -2.7677705
3.661026 0.45325717 -2.7338245
3.4792514 0.5469631 -2.7974739
3.5432978 0.54696316 -2.7727208
3.6387498 0.53953743 -2.7430191
3.7004242 0.55933934 -2.7232168
3.4729087 0.64597285 -2.7974739
3.5470271 0.65009826 -2.7690537
3.6489213 0.63127607 -2.7363667
3.4469769 0.72435594 -2.7892227
1.1634167 2.2723813 -2.7863774
1.084294 2.3853104 -2.7746255
1.1247798 2.3384235 -2.7739587
1.0330642 2.4536939 -2.7611349
0.95697355 2.5519123 -2.7603452
0.92081153 2.6509242 -2.7603455
0.89988822 2.7870622 -2.7232168
0.91247046 2.7474594 -2.7628202
0.88600343 2.8489435 -2.7603452
0.83553195 2.947953 -2.760345
0.78128254 3.049439 -2.7578697
0.80520999 3.0098343 -2.7974739
0.76382697 3.1459746 -2.760345
0.77769345 3.2425067 -2.7578709
0.80397224 3.2821119 -2.7974739
0.79438066 3.3068645 -2.7355928
0.82921082 3.349297 -2.7638807
0.87400109 3.4141252 -2.7520943
0.94054365 3.4603312 -2.7652955
1.0408084 3.5116339 -2.7622211
1.1010022 3.5358245 -2.7232168
1.3417587 -1.6405373 -2.6768055
1.289121 -1.5396705 -2.6885629
1.3217491 -1.5648733 -2.6489584
1.2728256 -1.455513 -2.663811
1.3027346 -1.4951165 -2.6242065
1.2465777 -1.3589772 -2.661335
1.2297921 -1.2599678 -2.6613359
1.2387261 -1.1609585 -2.6613359
1.2667748 -1.0798247 -2.6709607
1.3372024 -1.027294 -2.6563849
1.439492 -1.0000666 -2.6242065
1.3751357 -0.97531426 -2.6984639
1.4418436 -0.96541327 -2.6650476
2.2577522 -0.91184628 -2.6584792
2.288502 -0.86805373 -2.6902127
2.3417199 -0.83251143 -2.6546695
2.3844178 -0.76904374 -2.6902125
2.4485359 -0.73350167 -2.654671
2.4905443 -0.67828459 -2.6860876
2.541882 -0.63829994 -2.6603825
2.6034775 -0.60402721 -2.6242065
2.5855322 -0.57927465 -2.6860876
2.6489313 -0.54327106 -2.664711
2.7286835 -0.51326817 -2.6324573
2.6938238 -0.48026466 -2.6984639
2.765743 -0.45276204 -2.6709611
2.8372653 -0.42580944 -2.6440089
2.928354 -0.40600738 -2.6242065
2.8553336 -0.37300411 -2.6902127
2.9519567 -0.34943035 -2.6666389
3.0382957 -0.32349902 -2.6407082
3.0558286 -0.2657432 -2.681962
3.1423748 -0.23981218 -2.6560311
3.2130075 -0.21623833 -2.6324573
3.1686075 -0.16467074 -2.6922755
3.2458932 -0.14787439 -2.6631026
3.3319423 -0.12877961 -2.6341078
3.2721038 -0.071848869 -2.6984639
3.3602848 -0.049571648 -2.6662858
3.4497032 -0.028532058 -2.6303947
3.3825612 0.027161062 -2.6984639
3.4549618 0.047788091 -2.6682107
3.5470114 0.064289719 -2.6365829
3.6109033 0.089042187 -2.6242065
3.457438 0.11379468 -2.6984639
3.548491 0.1456193 -2.6807835
3.6439068 0.15504882 -2.6448333
3.7420917 0.17567587 -2.6242065
3.5812001 0.21280456 -2.6984639
3.6508162 0.2499333 -2.6860878
3.7619822 0.24816526 -2.6454225
3.8571901 0.27468577 -2.6242065
3.6814477 0.31181452 -2.6984639
3.7600372 0.35424736 -2.68432
3.8543024 0.33656698 -2.6489592
3.9368927 0.35636905 -2.6291568
3.7926786 0.44795305 -2.6984639
3.8625166 0.44633877 -2.6737108
3.9637372 0.44192359 -2.6381691
3.7849681 0.53937763 -2.6904788
3.6938238 0.63359678 -2.6984642
3.700012 0.60884422 -2.6984642
0.97187066 2.4827528 -2.6584232
1.0319014 2.4570291 -2.6984637
0.86500257 2.5673845 -2.645865
0.92394471 2.5364437 -2.6768053
0.86271209 2.653779 -2.6527669
0.90153819 2.6385472 -2.6984637
0.87915814 2.749934 -2.6613345
0.87149978 2.8489432 -2.6613359
0.79840279 2.9850821 -2.6242065
0.8285597 2.9454772 -2.66381
0.77395976 3.0469623 -2.6613345
0.75226259 3.1459746 -2.661335
0.7594949 3.2449815 -2.6613343
0.78546971 3.3266678 -2.6563845
0.8116042 3.37287 -2.6695859
0.86636013 3.4283767 -2.6579597
0.93120003 3.4751816 -2.668761
0.99363816 3.5048842 -2.6365826
1.0508782 3.5197349 -2.6638103
1.101002 3.5461385 -2.6737111
1.3434911 -1.5394996 -2.5883582
1.2931432 -1.4332349 -2.5994537
1.327479 -1.4561234 -2.5601211
1.2810766 -1.3540275 -2.5796523
1.3428334 -1.3639283 -2.5202463
1.2743934 -1.2649181 -2.579653
1.3407296 -1.2550175 -2.5202456
1.2839935 -1.1662619 -2.588846
1.345185 -1.1609578 -2.5375733
1.4303647 -1.1516756 -2.5004439
1.3417202 -1.0825751 -2.5829527
1.427354 -1.0571878 -2.5575655
2.1677384 -1.0286272 -2.5232923
2.2275496 -1.0000668 -2.5128202
2.2666073 -0.94567651 -2.5502748
2.3175859 -0.90600735 -2.5301468
2.3595099 -0.85773975 -2.5561373
2.4206958 -0.81132925 -2.5406671
2.4655511 -0.76354289 -2.5637009
2.5322583 -0.72103888 -2.5386982
2.5787253 -0.66414016 -2.574702
2.6431932 -0.63328028 -2.5409486
2.7275491 -0.60402727 -2.5128202
2.6756721 -0.57102382 -2.5912027
2.7633555 -0.54552126 -2.556699
2.8534777 -0.52481937 -2.520246
2.9432054 -0.50501728 -2.5004442
2.840688 -0.47201386 -2.5912032
2.9500122 -0.45241821 -2.5592318
3.0315924 -0.43075973 -2.5375731
3.1189477 -0.41425815 -2.5086946
3.0561388 -0.36269063 -2.5932655
3.1434693 -0.34412616 -2.562326
3.2357268 -0.33882207 -2.5181246
3.3064477 -0.30699742 -2.5004442
3.1839232 -0.28224492 -2.5994539
3.2538495 -0.25336704 -2.582952
3.3465464 -0.24511625 -2.5375736
3.4382544 -0.21623833 -2.5086944
3.3622642 -0.1634331 -2.5895529
3.4509747 -0.15023172 -2.5499496
3.5377586 -0.12877961 -2.520246
3.6084285 -0.10897756 -2.5004442
3.4749191 -0.065660745 -2.5932655
3.5628672 -0.047096401 -2.562326
3.6502602 -0.049571659 -2.5202463
3.7293024 -0.018218517 -2.5086946
3.5638738 0.014784813 -2.5994539
3.6414022 0.046609402 -2.5817738
3.7477639 0.056038916 -2.5458236
3.8501358 0.054388739 -2.5103443
3.9363983 0.089042187 -2.5004442
3.6975369 0.11379468 -2.5994539
3.7614298 0.13854715 -2.5870779
3.8546121 0.15092345 -2.5623257
3.9553175 0.15622747 -2.5251966
4.0372643 0.17567587 -2.5004444
3.8738983 0.2251808 -2.5994537
3.9560242 0.25170135 -2.5782378
4.0451326 0.24462923 -2.5322692
4.1307049 0.26849765 -2.5066316
3.9809527 0.32419074 -2.5994537
4.055675 0.34894323 -2.5747018
4.1299353 0.35220012 -2.5208538
4.061398 0.41701248 -2.5839837
4.1263733 0.41082439 -2.5251966
0.87089914 2.4900327 -2.5404291
0.92881751 2.4838443 -2.5994539
0.78194255 2.5791419 -2.520246
0.83186018 2.5428367 -2.5598512
0.77297997 2.650924 -2.5251956
0.81155288 2.650923 -2.5870781
0.77323759 2.7458084 -2.5169458
0.81944233 2.7533092 -2.5769525
0.78576881 2.8489425 -2.5251946
0.83847129 2.8489425 -2.5870783
0.78122193 2.9530487 -2.5426695
0.81366694 2.9190753 -2.591203
0.75777823 3.0469615 -2.5499494
0.74933183 3.1459761 -2.5499492
0.75879902 3.2449813 -2.5499501
0.77971524 3.3316176 -2.5499485
0.80719036 3.3811212 -2.5499489
0.84774309 3.4306288 -2.5499487
0.91647214 3.4801328 -2.5499489
0.96560597 3.5048835 -2.5499489
1.0618931 3.5296352 -2.5499489
1.1615865 3.5543897 -2.5511281
1.315111 3.5791414 -2.5458238
2.3516207 -1.7178887 -2.411335
2.2634401 -1.6312549 -2.4096851
2.3132546 -1.6807594 -2.4096849
2.1882544 -1.5198687 -2.4076221
2.2126632 -1.5693735 -2.4096851
2.1650252 -1.4608438 -2.4014342
1.3862743 -1.3796047 -2.4756918
1.4367617 -1.3334973 -2.4684122
2.1238978 -1.3589778 -2.4014342
1.4417615 -1.2599677 -2.4674416
2.1085572 -1.2486229 -2.4076228
1.4784156 -1.1758091 -2.4695041
2.1556635 -1.1551824 -2.415736
2.1770718 -1.0796285 -2.4562433
2.2462797 -1.038147 -2.4318998
2.3200617 -1.0000668 -2.4014342
2.2841706 -0.97531426 -2.4633157
2.351532 -0.93288136 -2.4350278
2.3850365 -0.87630457 -2.4633157
2.4427295 -0.83631927 -2.4376111
2.5063238 -0.80204695 -2.4014342
2.4951856 -0.77729458 -2.4756918
2.5562229 -0.74804157 -2.4419391
2.6302409 -0.7092253 -2.4199986
2.6531377 -0.67209649 -2.4571276
2.7381468 -0.64115572 -2.4385633
2.8366151 -0.61021519 -2.4199986
2.8419263 -0.57102388 -2.4674411
2.9508078 -0.54745007 -2.4438677
3.0496416 -0.52481937 -2.4212363
3.1350369 -0.50501728 -2.4014342
3.0758374 -0.47201386 -2.4674411
3.1680989 -0.4484401 -2.4438672
3.2497642 -0.42580926 -2.4212368
3.3212991 -0.40600738 -2.4014342
3.2651944 -0.37300411 -2.4674413
3.3434882 -0.34943032 -2.4438677
3.4351597 -0.32679945 -2.4212365
3.5137498 -0.30699742 -2.4014342
3.3986509 -0.28224492 -2.4756918
3.4637804 -0.25749248 -2.4633157
3.5469899 -0.24334821 -2.4367952
3.644628 -0.22655188 -2.4076228
3.5728459 -0.1708588 -2.4756923
3.6548386 -0.15023176 -2.455065
3.7498887 -0.14858161 -2.4212365
3.8297565 -0.11722843 -2.4096849
3.6987743 -0.084225059 -2.4756918
3.7668436 -0.071848869 -2.4633157
3.8449168 -0.047096413 -2.4509392
3.9447527 -0.03884558 -2.4179358
4.035408 -0.0099676847 -2.4014342
3.8683288 0.014784813 -2.4756918
3.9458051 0.049438264 -2.4657915
4.0428333 0.047788084 -2.4303119
4.1302409 0.070477843 -2.4076228
4.0528893 0.13235906 -2.4695041
4.152813 0.15429869 -2.4306886
4.2006311 0.18805212 -2.4014342
4.1649251 0.24498291 -2.4558904
4.2210522 0.25818413 -2.4096851
4.1668029 0.34481779 -2.4602909
4.2222886 0.32306558 -2.41381
0.86214066 2.4900324 -2.4657907
0.77620316 2.5766671 -2.4385633
0.84055388 2.5285997 -2.4417295
0.74363852 2.650924 -2.4385633
0.74131745 2.749934 -2.4385629
0.74762172 2.8489435 -2.4385631
0.74622935 2.947953 -2.4385648
0.74684805 3.0469627 -2.4385633
0.75489283 3.1459739 -2.4385643
0.77976131 3.2449818 -2.4385643
0.79097724 3.315115 -2.4674413
0.8149206 3.3506567 -2.4318986
0.85415256 3.4283776 -2.4419386
0.92810583 3.4751813 -2.4311378
0.97228909 3.5048842 -2.4633157
1.048403 3.5172603 -2.4385633
1.1391212 3.5428383 -2.4360876
4.3553343 3.5791414 -2.4138103
4.462388 3.5791411 -2.4509392
4.5391212 3.5791411 -2.4756918
4.3714228 3.6038938 -2.4014342
4.4277349 3.6162701 -2.4138103
4.5165792 3.6330671 -2.4306068
2.3585708 -1.7178885 -2.3366971
2.2806346 -1.6294867 -2.3448567
2.3308556 -1.6766338 -2.3354268
2.1962991 -1.5198687 -2.376682
2.239327 -1.5594726 -2.3370776
2.1824996 -1.4530375 -2.356879
2.2197113 -1.4662386 -2.3106751
2.1645708 -1.362353 -2.3541789
2.2169676 -1.3515521 -2.3073754
2.1680651 -1.2599678 -2.3643045
2.2232938 -1.2599679 -2.3148012
2.1901112 -1.1857104 -2.3766823
2.2475648 -1.1600063 -2.3366969
2.301497 -1.123829 -2.3024244
2.2809525 -1.0792749 -2.3667808
2.3333452 -1.0396703 -2.3304784
2.3776104 -0.95606232 -2.3491788
2.4226074 -0.91520101 -2.3271759
2.4680464 -0.86216009 -2.3519287
2.5375392 -0.82129896 -2.3299267
2.5741866 -0.76904374 -2.3684311
2.6453242 -0.74635398 -2.3395524
2.74667 -0.71293819 -2.322226
2.7693188 -0.67003375 -2.3684311
2.8523631 -0.65848255 -2.3370776
2.9465468 -0.62382913 -2.3420281
3.0521157 -0.61227793 -2.3106754
2.9902349 -0.57927465 -2.376682
3.0728464 -0.56689847 -2.3519292
3.1649873 -0.53967083 -2.3469787
3.2344186 -0.52481931 -2.3222263
3.3163488 -0.50501728 -2.3024244
3.2577679 -0.47201386 -2.3684311
3.3464935 -0.44844007 -2.3448572
3.4417202 -0.42580926 -2.322226
3.5310764 -0.40600738 -2.3024244
3.4541371 -0.37300411 -2.3684311
3.5582163 -0.34943035 -2.3448567
3.6548393 -0.32556176 -2.3271768
3.7365224 -0.31937367 -2.3024249
3.6589639 -0.27399415 -2.3684311
3.7577684 -0.24511629 -2.3519285
3.8486819 -0.24511623 -2.3209891
3.9392862 -0.21623833 -2.3106754
3.8510022 -0.17498425 -2.3684311
3.9433093 -0.14610635 -2.3519294
4.0448966 -0.14198095 -2.327177
4.1302404 -0.12754196 -2.3086128
3.9766212 -0.084225059 -2.376682
4.0578923 -0.059472639 -2.3684311
4.1586285 -0.047096401 -2.3395526
4.2532296 -0.028532058 -2.3086128
4.1753626 0.043662686 -2.3684304
4.2588882 0.053681523 -2.3307135
4.3326435 0.064289726 -2.3024249
4.2501979 0.14597289 -2.3568792
4.3253212 0.15917422 -2.3106754
4.2755833 0.24993336 -2.3643048
4.3266082 0.24800816 -2.3156254
4.2630243 0.327178 -2.3604641
4.3367696 0.31181449 -2.3024244
0.78190136 2.5890424 -2.3519294
0.82467967 2.5537474 -2.3404698
0.75299788 2.650924 -2.3395531
0.74259388 2.749934 -2.3395531
0.74069858 2.8489435 -2.3395531
0.73822343 2.9479537 -2.3395538
0.74232316 3.0469627 -2.3395531
0.76146793 3.1459739 -2.3395536
0.79075211 3.2303562 -2.3429279
0.81139815 3.2771618 -2.3321276
0.83630502 3.3439932 -2.3395534
0.87018526 3.4141252 -2.3478041
0.94544816 3.4553792 -2.3395529
1.0230317 3.4801316 -2.3165689
1.061398 3.5048845 -2.3574297
1.1183288 3.5296364 -2.3766818
3.9722893 3.5048842 -2.3024244
4.0606804 3.5533986 -2.3113353
4.1416378 3.5626392 -2.3395529
4.2215672 3.5750158 -2.3643057
4.1622643 3.6224589 -2.3086131
4.2653584 3.6385481 -2.3321273
4.3441958 3.6484489 -2.3568797
4.4273639 3.6632996 -2.376682
4.3538904 3.7111545 -2.3106756
4.437017 3.7427831 -2.3189263
2.4115939 -1.7268268 -2.2384808
2.3465552 -1.6560067 -2.2405436
2.2801137 -1.5473711 -2.2584202
2.3125472 -1.5693737 -2.2175586
2.2653589 -1.4555129 -2.2430186
2.3033535 -1.4951165 -2.2034147
2.2605224 -1.3625129 -2.2458475
2.3030441 -1.3342254 -2.2034149
2.2629249 -1.2640932 -2.2611706
2.3151112 -1.2546636 -2.2140224
2.2893274 -1.1898357 -2.2694209
2.3282492 -1.154294 -2.2338791
2.3652349 -1.0637156 -2.2493832
2.4135017 -1.0165682 -2.2199163
2.4518685 -0.94849914 -2.2467306
2.5165343 -0.90724486 -2.2219789
2.5548661 -0.85705233 -2.2501693
2.6316338 -0.8185485 -2.2322922
2.7173386 -0.80204695 -2.2034147
2.6727843 -0.77729458 -2.2652957
2.7599337 -0.75666744 -2.2446685
2.8555818 -0.72283912 -2.2430186
2.9299006 -0.71541327 -2.2157907
3.0094182 -0.70303702 -2.2034147
2.9557877 -0.67003375 -2.2694211
3.0573757 -0.65972024 -2.2405436
3.1529825 -0.62877959 -2.2405431
3.2610679 -0.61227793 -2.2116654
3.2429163 -0.57102382 -2.2694211
3.3357971 -0.54745018 -2.2458472
3.436399 -0.52481937 -2.2232165
3.5391212 -0.50501728 -2.2034147
3.4541378 -0.4720138 -2.2694211
3.5642276 -0.44844007 -2.2458479
3.6548395 -0.43075982 -2.2281675
3.7306437 -0.41838357 -2.2157907
3.8083043 -0.40600738 -2.2034147
3.6542203 -0.38125491 -2.2776718
3.7563243 -0.361453 -2.2578697
