# .PCD v0.7 - Point Cloud Data file format
VERSION 0.7
FIELDS x y z intensity distance sid
SIZE 4 4 4 4 4 4
TYPE F F F F F F
COUNT 1 1 1 1 1 1
WIDTH 89
HEIGHT 1
VIEWPOINT 0 0 0 1 0 0 0
POINTS 89
DATA ascii
-0.63869935 -0.33830035 -1.814155 12.161813 1.7876408 173.62137
-0.4349966 -0.32621753 -1.8378214 12.161558 1.7592754 239.28993
-0.14908399 -0.32497105 -1.8425195 11.986779 1.7319061 332.80051
0.14604726 -0.32647946 -1.8423973 11.345851 1.7481633 429.86612
0.37499186 -0.33714658 -1.8245577 11.074144 1.7779907 503.96768
-0.70240372 -0.043544687 -1.8177685 0 1.7822502 151.4375
-0.35498708 -0.29541194 -1.8930202 12.261224 1.7929357 267.28162
-0.14166696 -0.2907674 -1.9028683 11.745923 1.785444 335.67899
0.083516851 -0.2933045 -1.8992395 11.066667 1.7897713 407.90668
0.36477584 -0.018341584 -1.8615584 0 1.7805834 500.33334
-0.42411876 0.44903123 -1.83075 41.75 1.7750001 243.75
-0.132625 0.50041842 -1.8237158 8.3157892 1.7501053 338.3158
0.11768 0.45815 -1.8346 20 1.762 420
-1.0081322 -0.47583914 -1.5543966 11.257241 1.7420951 34.724483
-0.71953571 -0.43402731 -1.6400148 13.088454 1.6773478 131.99553
-0.44792786 -0.43601248 -1.6393596 13.759748 1.5970507 223.01469
-0.14957167 -0.43831354 -1.6388698 14.567302 1.5591199 330.68356
0.148692 -0.44062024 -1.6391782 13.163873 1.5783144 439.61066
0.42791411 -0.43887073 -1.644673 12.249776 1.6495744 535.7229
0.7230798 -0.45696023 -1.5896386 12.213014 1.7226673 634.28064
0.91351503 -0.4890438 -1.5379728 12.457711 1.7857325 694.66168
-0.97808933 -0.1671951 -1.5787703 11.555555 1.6950742 36.666668
-0.8473056 -0.22277021 -1.5813833 14.777778 1.6409444 77.166664
-0.19440715 -0.046066862 -1.6358 2 1.4975716 312.71429
0.5608061 -0.18697302 -1.5802937 10.32258 1.5932258 594.16125
0.84597403 -0.12919994 -1.6154912 17.267443 1.75551 674.73834
0.91035235 -0.1366121 -1.6162516 20.737501 1.790306 692.43127
-1.008918 0.1404286 -1.5765002 2.4000001 1.7063999 26.6
-0.70611572 0.29801807 -1.5031615 13.361702 1.5185956 113.68085
-0.4412339 0.2984623 -1.5025102 15.878261 1.4345219 211.43477
-0.13200644 0.29825994 -1.5033753 21.024792 1.3943474 335.68594
0.15297414 0.29812744 -1.5040103 23.416267 1.4159336 451.52151
0.3604362 0.29825491 -1.5039183 18.597403 1.4648571 531.92206
0.80671823 0.092522286 -1.5898906 1.0896244 1.7102182 669.12683
0.91230398 0.087212153 -1.6117136 0.71428573 1.7848393 694.39288
-0.68414819 0.35296947 -1.5949275 15.831223 1.6037875 135.07594
-0.44596776 0.35557485 -1.6001168 19.858725 1.5397396 218.9511
-0.13317889 0.36050579 -1.6079563 22.810753 1.509676 336.18817
0.15012784 0.3638956 -1.6158864 20.308693 1.5368845 442.55359
0.36372909 0.36573663 -1.6182921 13.379665 1.5861983 519.23425
0.83619285 0.36634451 -1.6320425 1.8135314 1.7931304 663.64026
-0.94462425 -0.63698047 -1.2651582 11.220983 1.5311092 13.874019
-0.73469365 -0.63949102 -1.2603098 14.32703 1.4248484 84.465363
-0.44608447 -0.64412004 -1.2608438 15.908402 1.3239439 197.36832
-0.14826417 -0.64615035 -1.2620178 18.3521 1.2802948 327.09824
0.1490078 -0.64820707 -1.2636969 19.804808 1.3050423 458.47406
0.44662797 -0.65026844 -1.264081 18.934175 1.3931273 579.40686
0.69745773 -0.64889359 -1.2698481 14.326565 1.5113151 667.0354
-0.98425263 -0.55203468 -1.418946 11.588684 1.6420498 23.01968
-0.73194486 -0.50249171 -1.3587765 17.33259 1.4562492 90.942757
-0.44813392 -0.55790305 -1.417257 14.848451 1.4279946 207.82262
-0.1505304 -0.55927926 -1.4199376 17.138439 1.388288 327.92935
0.14692132 -0.56065506 -1.4234009 17.346184 1.4120706 449.32681
0.43792564 -0.52126044 -1.406656 17.132206 1.462903 564.46765
0.73284209 -0.56042677 -1.430383 12.148048 1.6242443 657.00885
0.90425068 -0.52411538 -1.4953735 10.133334 1.7559335 697.66669
-0.94418734 -0.066759825 -1.4256182 7.2727275 1.5408182 16.363636
-0.69958258 -0.25592238 -1.2288741 25.094118 1.2667592 66.061028
-0.16704388 -0.028251797 -1.3128847 9.1525421 1.1732372 315.83051
0.41796121 -0.19877315 -1.2532938 27.655073 1.2402762 595.53931
0.71361095 -0.040954702 -1.4218404 1.835891 1.5162141 673.27313
-0.92294854 0.10841937 -1.4268428 3.4285717 1.5317143 23.57143
-0.67701483 0.20353366 -1.3365971 15.785779 1.3433827 93.263367
-0.44650614 0.20093767 -1.3325951 21.515135 1.2586765 188.35387
-0.15012048 0.204466 -1.3239318 29.080664 1.2022465 324.57336
0.14768001 0.19907366 -1.3329631 24.496922 1.2337791 464.73804
0.37282354 0.19694969 -1.331059 21.626886 1.2935709 563.98193
0.71369046 0.019760273 -1.4654813 0.89183807 1.5528008 664.57135
-0.16471836 0.34873259 -1.2905475 34.7262 1.1970587 317.56726
0.42356431 0.3318643 -1.4316858 0.5714286 1.4287143 563.42859
-0.92723626 -0.679721 -1.1868237 11.470433 1.4804221 8.9093294
-0.74774688 -0.6736756 -1.1803077 16.450617 1.3820423 69.370239
-0.44785121 -0.68281198 -1.1887605 16.4669 1.2806486 191.33653
-0.15107696 -0.68448097 -1.1906871 18.791822 1.2356324 324.96854
0.14587602 -0.68622464 -1.1928655 20.356684 1.2606255 460.82269
0.44422457 -0.68780714 -1.1946887 19.924618 1.3520241 585.55554
0.6794892 -0.68859839 -1.1956955 16.017883 1.4616913 670.76086
-0.80544174 -0.51773667 -1.1705121 13.091384 1.3413683 31.190601
-0.68431073 -0.10123693 -1.1249471 28.89945 1.1510402 42.919823
-0.45452696 -0.011996879 -1.0940071 33.354782 1.0202826 145.31013
-0.16243358 -0.0081404317 -1.1118834 44.450531 0.97583497 311.42068
0.12800059 -0.0047518276 -1.1282907 37.676376 1.0147895 477.48303
0.41306168 -0.055746738 -1.1656451 29.014013 1.1455507 614.42151
-0.66581827 0.058623396 -1.0952058 19.798058 1.1124846 42.097469
-0.44577444 0.056517161 -1.0993611 25.633772 1.0240841 151.06563
-0.14990492 0.056659978 -1.1090751 34.458138 0.97420299 318.78729
0.1455171 0.057035949 -1.1200897 31.944605 1.0129607 488.04935
0.37498537 0.057500653 -1.1270695 28.999033 1.0948012 605.40833
0.4095467 0.31770334 -1.1121666 1.3333334 1.1340001 615.33337
