# .PCD v0.7 - Point Cloud Data file format
VERSION 0.7
FIELDS x y z intensity distance sid
SIZE 4 4 4 4 4 4
TYPE F F F F F F
COUNT 1 1 1 1 1 1
WIDTH 181
HEIGHT 1
VIEWPOINT 0 0 0 1 0 0 0
POINTS 181
DATA ascii
-0.63869911 -0.33830032 -1.8141541 12.161813 1.7876409 173.62137
-0.48717779 -0.32661948 -1.8364986 12.025288 1.7678442 222.4931
-0.29622447 -0.31841877 -1.8531026 12.263607 1.7506529 284.66162
-0.099839903 -0.3156797 -1.8592931 11.81362 1.7449623 349.08408
0.096067294 -0.31977749 -1.8535181 11.355165 1.7506092 413.34799
0.28747979 -0.33049873 -1.8363059 11.182844 1.7670702 475.6998
0.43963495 -0.34265697 -1.8148468 10.829268 1.7875274 524.72253
-0.70240378 -0.043544687 -1.8177688 0 1.7822502 151.4375
-0.21153 -0.037492 -1.9119999 0 1.774 313
0.36477584 -0.018341586 -1.8615583 0 1.7805834 500.33334
-0.47379801 0.44685403 -1.8254601 56.799999 1.7784001 227.60001
-0.31856751 0.45094252 -1.8309249 16.5 1.758 277.75
-0.12608695 0.50345337 -1.8247555 7.8888888 1.7515554 340.5
0.11768 0.45815 -1.8346 20 1.762 420
-1.0192999 -0.44770727 -1.6138543 12.4 1.7888974 39.657143
-0.85220349 -0.42468667 -1.6551056 12.191617 1.7402276 92.808388
-0.69821936 -0.42899051 -1.6506155 13.180643 1.6760352 139.87669
-0.49856973 -0.4293783 -1.6510379 13.839806 1.6157575 206.16141
-0.29920995 -0.43020925 -1.6518735 14.468996 1.5791349 276.47379
-0.099629447 -0.43091327 -1.6529198 14.53844 1.5673473 349.05444
0.10003903 -0.43200451 -1.6541468 13.084507 1.5811137 421.57205
0.29897091 -0.43273133 -1.656113 12.564726 1.6199909 491.44659
0.47043455 -0.43222296 -1.6580147 11.741472 1.6715834 548.44434
0.69145781 -0.44073609 -1.6354353 12.419894 1.7413714 619.12897
0.8190645 -0.45617715 -1.6158892 10.548572 1.7893432 657.9657
-1.0083312 -0.33512941 -1.6262938 6.375 1.7714373 40.375
-0.84635049 -0.38601223 -1.7143803 11.561475 1.7812251 101.1045
-0.69284141 -0.37556654 -1.7471426 12.540706 1.7505133 151.04092
-0.49923465 -0.3740449 -1.751193 12.593156 1.6980385 213.03688
-0.29967421 -0.37453794 -1.7521212 13.048544 1.6631378 280.04556
-0.10016618 -0.37507898 -1.7528015 13.066016 1.6515375 348.91599
0.099028043 -0.37581295 -1.7540734 11.960093 1.6644871 417.61383
0.29935277 -0.37596977 -1.7560601 11.427127 1.701645 484.65289
0.48391229 -0.37569144 -1.7547333 11.216702 1.7523375 543.60358
0.69794399 -0.36138582 -1.644537 14.713044 1.7353536 622.52393
0.80219996 -0.32608002 -1.6680501 19 1.7985001 650
-1.06925 -0.087593004 -1.6217999 6 1.773 17.5
-0.97724003 -0.10677 -1.7007999 26 1.793 56
-0.71493995 -0.044515997 -1.76805 0 1.74 142
-0.20475 -0.054028999 -1.7627 2 1.625 312
-0.19414501 -0.046210002 -1.653275 1.5 1.5150001 313.25
0.57910502 -0.13334 -1.6144249 10 1.6257499 595.75
0.67335248 -0.10751034 -1.6811917 5.3333335 1.7256665 615.41669
0.89701056 -0.13346493 -1.624508 21.307693 1.789503 687.46399
0.76981491 0.12516539 -1.6398809 2.0875273 1.7348361 649.82056
0.85321331 0.10748093 -1.6331528 0.96657377 1.7715406 674.43732
-0.8570345 0.32593003 -1.6723111 6.6666665 1.7376667 90.666664
-0.68635428 0.37782511 -1.636451 14.886599 1.6472412 140.42842
-0.4990145 0.37721691 -1.636415 19.617857 1.5899701 203.6125
-0.31646016 0.37717462 -1.6372851 21.60364 1.5544305 268.87564
-0.066897929 0.37722266 -1.6382604 22.219782 1.539854 361.2149
0.099410355 0.37700173 -1.6382896 20.175753 1.5526 422.65988
0.29836249 0.376883 -1.6379938 15.753236 1.589711 493.96896
0.41277158 0.37658146 -1.6363587 10.766233 1.6194485 533.53894
0.77815855 0.33969146 -1.6484001 0.85714293 1.773 645.85718
0.83286184 0.34359348 -1.6391267 1.7129186 1.7931101 662.39905
-0.80575001 0.41797 -1.7462 32 1.799 118
-0.68011844 0.40665618 -1.6891552 16.975609 1.699278 149.35609
-0.49279881 0.40830591 -1.6897479 18.481482 1.6456249 210.90211
-0.31537694 0.41113678 -1.6933211 21.204704 1.6159524 272.37646
-0.070712343 0.42021155 -1.7011763 20.59375 1.6110948 359.38867
0.1017343 0.4162696 -1.7034068 19.452055 1.6246874 420.22662
0.30154389 0.41933125 -1.7078131 14.016859 1.6658294 488.36246
0.41115326 0.41970444 -1.7077378 10.130841 1.6945142 524.55139
0.84659523 0.41756919 -1.6153829 2 1.7946085 667.24249
-1.0475751 -0.50796676 -1.5038638 11.886076 1.730634 16.746092
-0.90503854 -0.51747304 -1.4812489 11.912454 1.6412116 55.134384
-0.68162322 -0.50676167 -1.5057322 13.874276 1.561794 130.19258
-0.49879062 -0.51466084 -1.4953496 14.300203 1.4961954 194.21967
-0.29931083 -0.51655102 -1.4949989 15.444792 1.4556791 270.11533
-0.099913701 -0.51819545 -1.4953753 16.656548 1.4424372 348.85751
0.099471912 -0.520289 -1.4953623 15.790458 1.4564397 427.55396
0.29888046 -0.5220176 -1.4954673 14.972646 1.4970646 503.37274
0.49611762 -0.52476746 -1.4782312 14.168824 1.5467123 575.38367
0.69824493 -0.52390009 -1.4959631 11.84681 1.6491928 638.362
0.84935337 -0.51952469 -1.503166 11.111267 1.7309624 681.54443
-1.0031 -0.35358 -1.5994999 14 1.749 38
-0.89320678 -0.339618 -1.4984688 8.8175182 1.6068467 53.109489
-0.76852667 -0.34889168 -1.4576902 17.733334 1.5142334 86.700005
0.49522534 -0.31395906 -1.4800097 12.707316 1.4946952 583.41461
0.60729599 -0.25937602 -1.5740401 15.6 1.6152 608.60004
0.92745739 -0.39136803 -1.5710602 27.733335 1.7975334 697.46667
-1.0131716 -0.094375871 -1.5424286 7.7142859 1.6768572 18.714287
-0.89870942 -0.11187346 -1.484808 12.799999 1.5689998 42.559998
-0.18142669 -0.040657166 -1.4687999 5 1.3300002 313.66669
0.53940099 -0.12562312 -1.4763105 14.965517 1.4844829 604.03448
0.70251733 -0.035055045 -1.4336388 1.8910767 1.5201076 667.35779
0.82616144 -0.098619707 -1.4919403 3.0153847 1.6382613 693.06152
-1.0313667 0.106781 -1.5501332 1.3333334 1.6933334 15
-0.88745546 0.15026313 -1.4401616 3.5384617 1.5276924 38.615387
0.59303999 0.0018248 -1.4025 0 1.437 637
0.72190058 0.034989908 -1.4917647 0.93971288 1.579601 662.20526
0.84074676 0.051480092 -1.5466287 0.62241566 1.6898196 687.14795
-0.81097364 0.27205181 -1.5207728 4 1.5749091 79.818184
-0.68086714 0.29530624 -1.4947078 15.729541 1.5008115 120.78785
-0.49855268 0.293607 -1.4930434 19.540764 1.4381394 187.69768
-0.30715623 0.29173264 -1.4907695 22.761234 1.3940833 263.26178
-0.065008089 0.29258293 -1.4929414 26.177084 1.3803196 363.33521
0.099517047 0.29177773 -1.4929289 25.145906 1.3943839 431.12881
0.2989316 0.29194459 -1.4933661 19.408627 1.4365793 510.17151
0.41796616 0.28845441 -1.4863638 14.106221 1.4658624 556.0683
0.89850998 0.38922 -1.5937001 2 1.799 686
-0.22389001 0.42515498 -1.4893501 13 1.4124999 298.5
-0.12816601 0.429414 -1.49924 12.400001 1.4177999 337.39999
0.86023581 0.43432719 -1.5955287 3.1428573 1.7892858 673.42859
-1.0067167 -0.60887486 -1.3195144 12.144578 1.5958674 2.4819276
-0.89886928 -0.63862246 -1.2617925 11.914727 1.5048127 28.080948
-0.69245374 -0.63958466 -1.2602636 14.920238 1.4051595 99.339119
-0.49828234 -0.64376956 -1.2605011 15.594916 1.3367394 175.39885
-0.29881489 -0.64504021 -1.2617058 17.039663 1.2926657 260.23901
-0.099587344 -0.64655823 -1.2620609 18.725948 1.2779042 348.85019
0.099627666 -0.64780366 -1.2634786 19.626139 1.294714 437.3158
0.2992847 -0.649387 -1.2641499 20.164988 1.3409079 521.8454
0.49845934 -0.65054399 -1.2640353 18.278515 1.4129715 599.19141
0.69308275 -0.65015274 -1.2675072 14.417719 1.507681 665.98309
0.81267953 -0.61575526 -1.3314708 11.92691 1.6072387 694.73755
-1.0192071 -0.58006841 -1.3718958 11.819048 1.6328927 6.1500001
-0.89302987 -0.57344276 -1.3539096 12.440067 1.5495663 40.99078
-0.70692563 -0.53048682 -1.3345544 18.768156 1.4326174 97.485863
-0.49955133 -0.58361423 -1.3696444 14.374036 1.4067765 183.84914
-0.30056551 -0.58467317 -1.3715681 16.133099 1.36546 264.34119
-0.10120212 -0.58552325 -1.3731047 17.721306 1.3519684 348.22882
0.097510457 -0.58665705 -1.3751972 18.354958 1.3681936 431.66992
0.29830122 -0.58715397 -1.3772364 18.283028 1.4127381 512.37756
0.47105351 -0.53898978 -1.377344 17.65542 1.4549234 579.51257
0.69638318 -0.58873802 -1.3792484 13.218587 1.5732315 652.70355
0.82418126 -0.58759689 -1.3809162 11.317784 1.6415809 691.3703
-0.81834662 -0.34739387 -1.3635033 10.222223 1.4569048 53.158733
-0.69938159 -0.32047638 -1.2456338 24.289667 1.2938998 72.415863
0.39981627 -0.36862001 -1.3610126 20.25 1.362 564
0.41603455 -0.29422623 -1.2989706 25.893908 1.2967426 583.36536
-0.85900104 -0.12456244 -1.3371923 8.8461542 1.4234999 26.384617
-0.72427231 -0.15012686 -1.245738 18.089888 1.2785058 56.146069
-0.16630089 -0.027391132 -1.30404 9.3818178 1.1643451 315.92728
0.41738078 -0.14957172 -1.228588 28.024069 1.210928 601.41602
0.74061781 -0.057385363 -1.3889185 1.627965 1.5032376 688.64667
-0.85529226 0.10552314 -1.3208444 2.2222223 1.4059445 23.222223
-0.67393309 0.16095014 -1.2624118 16.173502 1.2700605 79.74337
-0.49763396 0.16044031 -1.2621218 20.333736 1.2005249 155.07567
-0.29874283 0.15969366 -1.2621456 24.334808 1.1495429 248.9422
-0.099684432 0.15959445 -1.2636635 26.4 1.1332164 348.66272
0.099217311 0.15917473 -1.2638197 24.566877 1.1501559 448.23914
0.29867163 0.15867791 -1.2638761 25.23443 1.2003376 542.49963
0.42800552 0.15486564 -1.2640007 20.112095 1.2477878 599.04034
0.62667626 0.095853128 -1.370175 1.5 1.42875 654.25
-0.67714328 0.21998067 -1.3645742 15.878303 1.3697722 99.506805
-0.4991422 0.21954224 -1.3645202 20.906868 1.3047636 170.617
-0.28762776 0.23313981 -1.3580322 23.46789 1.2526636 262.66827
-0.14885934 0.29895273 -1.3148172 36.735176 1.2096641 325.23941
0.098678082 0.21831025 -1.3661011 24.25128 1.2580081 439.42981
0.2988115 0.21847644 -1.366661 21.201717 1.3046926 526.49664
0.42265624 0.21830995 -1.3657914 16.482143 1.3455948 577.23218
-0.2164 0.40009999 -1.3975 16 1.317 298
-0.88523883 -0.67767948 -1.1832421 11.734419 1.4541109 21.871025
-0.71491277 -0.67286921 -1.1801114 17.796831 1.3656346 81.002457
-0.49878874 -0.68252426 -1.1884145 15.977815 1.2936052 169.22202
-0.29909796 -0.68364555 -1.189784 17.595772 1.2479483 256.90656
-0.10019917 -0.68477154 -1.1909722 19.31554 1.2330471 348.51984
0.09864971 -0.68596011 -1.1925625 20.017168 1.2504231 439.93011
0.29756549 -0.68716711 -1.1939663 21.159279 1.2981466 526.78992
0.4971118 -0.6879468 -1.1948391 19.200897 1.3729397 606.22601
0.67948884 -0.68859822 -1.1956975 16.017883 1.4616923 670.76086
-0.82102203 -0.53462356 -1.1639775 12.328639 1.3499434 25.676056
-0.78592145 -0.4965784 -1.1786985 14.047059 1.3306236 38.100002
-0.6950866 -0.22791484 -1.1846306 30.324263 1.2209816 56.699547
-0.68273532 -0.082738504 -1.1162294 28.691391 1.1408263 40.907616
-0.50150335 -0.012612917 -1.0909683 31.92836 1.0330313 119.71344
-0.30431932 -0.0099826222 -1.1032469 39.976288 0.98499137 228.60722
-0.10635156 -0.0074485922 -1.1155094 44.777855 0.97522002 344.41229
0.091357537 -0.0051284814 -1.1264358 38.674419 1.0037719 457.90485
0.28588128 -0.0031615926 -1.1364648 33.655464 1.0667772 560.01263
0.41788846 -0.059553448 -1.1675003 28.767038 1.1494015 616.23413
-0.66581827 0.058623496 -1.0952064 19.798058 1.1124842 42.097469
-0.49790841 0.056566034 -1.0977918 23.917852 1.0397534 123.04884
-0.2990078 0.056399532 -1.1037834 30.808723 0.98624969 231.75279
-0.10048547 0.056802135 -1.1109605 35.298103 0.97254074 347.8905
0.098299995 0.057016969 -1.1183194 32.374683 0.99909562 462.61743
0.29726818 0.05709755 -1.1257228 30.668806 1.0628885 567.59283
0.42546067 0.058167949 -1.1260158 26.447348 1.1159754 629.33429
0.29005 0.24555001 -1.1686 0 1.1210001 552
0.4095467 0.31770334 -1.1121666 1.3333334 1.1340001 615.33337
